# 3D point list with one line of data per point:
#   POINT3D_ID, X, Y, Z, R, G, B, ERROR, TRACK[] as (IMAGE_ID, POINT2D_IDX)
# Number of points: 359, mean track length: 5.1353123921297898
4498 -1.1878562871845162 2.2917306384437386 1.7923312632979582 0 0 0 0.83955476872198198 100 1034 80 1091
4497 0.93082905399916549 1.1509815774001269 1.8634753497078005 242 204 63 0.37305019221876901 100 1027 80 1087 39 918 28 888 31 879
4495 -0.26011657721399833 1.7955178910514122 1.3024450132362881 0 0 0 0.78564538321877242 100 973 80 1078 39 898 31 860 28 869 57 905
4494 -0.075131446090752146 1.9163912170169946 2.4209245777244721 137 128 137 1.8980428993328022 100 848 80 1064 39 731 57 886 72 997 66 1088 14 843
4493 0.066127458983406467 1.922747554588037 2.3267705205383469 42 38 31 1.7684244889252809 100 1002 80 1063 39 834 28 858 86 949 31 845 57 938 66 1086
4492 -0.51218443533268598 1.9117948778597165 1.9715457491401887 255 235 63 1.2460687958362113 100 934 80 1060 39 816 28 802 31 792 57 927 72 1011 66 1124 22 899 14 876 61 1033 12 1100 71 967 10 820 96 827 19 1000 56 1093 16 1143 35 918
4491 -0.41761867251744583 1.6295072024524091 1.1419686182803401 0 0 0 0.60152874082128105 25 1162 76 1143 80 1033 66 967 57 897
4490 0.51855024949125583 1.0865018869447314 1.4168282479511554 22 18 4 0.9146126099909424 86 919 80 1031 39 853 28 760
4489 0.44986231501789137 1.7904877088899898 2.8580144556085969 104 69 52 0.51496468382319482 100 961 80 1011 39 891 57 943 28 861
4488 -0.68639641984431365 2.1513652629637141 2.3710082469592852 77 50 36 0.12552250832792913 100 956 80 997
4487 1.6372071399985664 3.0638237866475775 2.3830130840103281 242 224 184 0.63483136840753329 100 954 80 994
4486 0.81117636544296068 2.071302010320144 2.3416135315013493 230 215 178 0.61672943288501092 100 955 80 989 39 837 56 876
4485 -0.6279937134994189 1.781642289485672 1.8194645061075794 255 239 60 0.56598635459046975 100 930 80 976 39 809 57 858 72 933 66 994 12 983 71 849
4484 -0.98434178297658237 2.0211100202803882 1.7120240290379161 254 196 53 0.29336957566029159 100 927 80 972 71 905
4483 -0.5395166768347619 1.7955895655139669 1.738311218578668 121 87 17 0.79665595865741257 100 813 80 970 39 477 57 549 72 583 14 108
4482 -0.5926153021835957 1.8462656363760894 1.6512463668842015 132 98 40 1.2601778177520755 100 922 80 965 39 464 72 833
4481 -0.40463812459219745 1.878818327550972 1.5643447285647274 241 190 52 0.82172723111102375 100 983 80 960 57 915 66 895 72 927
4480 0.66841884127766293 1.3242920119562591 1.5555555347917793 255 240 59 0.22384618887913366 100 917 80 948 39 865 57 914
4479 0.81389663319233341 1.3334561743237934 1.5211777657739245 255 227 55 0.32131191579433427 100 914 80 947 28 790 57 849
4478 0.81170852017713402 1.3286092823100335 1.5225799190079559 255 227 55 0.29740515006338769 100 913 80 946 28 789 31 787 57 848 72 551 66 584
4477 -0.78772548658573271 1.5324866498846195 1.4038936025730526 255 227 64 0.016153396990766247 100 911 80 945
4476 0.24963208428079056 1.3501334849398192 1.3075107442281302 0 0 0 1.1535524268055426 45 1004 86 844 100 905 80 938 28 649 57 833 56 804 8 815
4475 0.45199251401916163 1.0631357351102544 1.4200377849931858 187 199 229 0.056711661596606795 100 972 80 937
4474 0.5198516433880821 1.7124672572012014 2.9820968211362748 152 100 70 0.33610408119955321 100 890 80 930 39 768
4473 -0.29065639387057807 1.9639480521493833 2.6367613519745432 106 71 55 0.27641760806552623 76 884 80 920 25 863
4472 1.0771732753023027 1.9320330037148372 2.5215477973760558 236 219 181 0.15487910293818036 100 851 80 910 39 741 86 766 28 721 31 745 57 807
4471 1.0755888366989084 1.9258358185042148 2.5206211078771252 236 219 181 0.12739137974852119 100 852 80 909 39 742 86 767
4470 -1.1530616387843395 2.3354775260529603 2.3202018136781173 219 188 146 1.4999940277068966 76 1056 80 904 25 1063
4469 -1.3860179546151572 2.4011234251388238 2.0414681191970425 0 0 0 1.4715855619390503 100 832 80 899 31 790 57 870 72 945 22 902 56 1003
4467 0.013451390386814683 1.5837170464369141 1.989920701124013 239 170 44 0.251775088169996 100 620 80 886 39 495
4465 -0.10538040521576113 1.4252862528724835 1.9390327610589537 255 198 44 1.2950094033235597 100 819 80 883 39 705 57 555
4464 0.96044482870650472 1.2655970406771901 1.5497607846473938 255 251 69 1.189295656711032 11 530 80 856 39 689 28 675 31 789 72 919 22 881 14 864 12 965 71 471 52 906 6 953 69 892
4462 0.62911375409119918 1.8484940433979038 2.7612165522027783 251 226 177 0.15495819138995406 100 759 80 826 39 649 28 621 31 631
4461 0.062336465981456209 1.960885223815551 2.6564804684761829 244 221 172 0.16066978776051816 100 748 80 821 39 619 28 560 31 576 57 682
4460 -0.3144205102063703 1.961274569142657 2.6095315637563528 154 100 71 0.62565157174040609 100 737 80 811 39 593 31 535 66 558 56 781 16 867 8 756 35 646
4459 -0.027492382653918155 2.0112103793754788 2.5032669005784509 13 12 13 0.27089779907453426 100 857 80 779
4458 0.2940127602637907 2.090768378501088 2.4113150151282046 248 223 173 0.155687462400764 100 692 80 762 66 750
4457 0.29335099100980944 2.0850679693458098 2.4117781699516376 248 223 173 0.16640842467077388 100 691 80 761 39 553
4456 0.23235552846400592 2.1142013658460277 2.3828561571036659 249 223 171 0.085503099095004281 100 675 80 746 57 630 72 676 66 752
4455 0.82954307117045245 2.0179981503127316 2.4233928301357728 252 227 177 0.11754170266473045 100 681 80 738 39 575 28 570 31 582 57 655 72 713
4454 0.42147354467719517 2.1190653921451079 2.3196154928861734 254 229 175 0.078381988248044335 100 662 80 735 39 539 28 504
4453 0.51914062693402552 2.1351330305681189 2.2822935465422707 243 220 174 0.12531555912226147 100 660 80 733 39 537
4452 0.58160990775274357 2.1096855422632861 2.307370458889757 239 218 175 0.19928930572871187 100 658 80 731 39 535 28 516 31 542 57 623
4451 0.23148621929877611 2.1872327323192478 2.2309771804778236 243 213 163 0.65724036156757693 100 652 80 727 39 526 57 602 72 427 66 709 22 625 14 400 71 431 10 332
4450 0.45619701900709553 2.150931157927082 2.2566200519870425 246 222 174 0.01939067525031752 100 650 80 726
4449 0.18484020312205324 1.9992321212497541 2.1677340076244964 248 185 49 0.44429447601474209 100 462 80 720 39 511
4448 0.20703600121617355 1.7804594175529116 2.1097381073791195 235 173 44 0.65686503501669335 100 637 80 716 39 502 57 585 72 615 66 928 61 743 14 623 12 929 71 764 10 589 96 661 6 818
4447 0.26279302177563307 1.6798391936895067 2.0797186330634352 40 36 30 0.48827282456826232 100 626 80 703 57 579 72 349 66 405 22 134 61 221 12 382 71 366 10 261 96 539 6 223 19 235
4445 1.3917998661310653 2.2354562628883308 2.0242579098231559 108 76 64 0.44561186891084198 100 625 80 701 39 517 28 495 31 733 57 606 22 637
4444 -0.20498126039260861 1.6841875369672197 2.0457885264888103 31 32 32 0.44514596509459076 100 630 80 697 39 496 28 469 76 796 25 786 31 494 57 784
4443 -0.59113477523225233 1.8947088922947803 1.9029696701667811 188 105 15 0.25249614745720961 100 614 80 692 66 654 39 480 12 675 96 542
4442 -0.4837385181248493 1.8062704018205251 1.9429657230679154 220 139 32 0.61495134767287885 100 414 80 690 39 46 57 562
4441 -0.50426957276608586 1.7656620877000568 1.9123341898958606 209 211 232 0.31423052615784397 100 416 80 689 39 288 31 273 57 564 72 595 66 645 12 669
4440 0.1097222314261919 1.3595684893116329 1.9872180693726424 94 90 100 0.48433986945812135 100 425 80 677 39 318 28 97 57 311 72 590 66 631 22 312 71 497 10 384 96 502 12 648
4439 -0.50182036680455666 1.7286342325725015 1.7311753436227972 254 218 58 0.24226235697149326 100 596 80 663 39 249 57 276 66 626 22 295
4438 -0.93927611165662905 1.9696728810450861 1.6048060082477147 254 212 53 0.12827724776999833 100 360 80 656 57 260
4437 1.113752781313571 1.254902271813066 1.6729386786824911 0 0 0 0.89169447948792846 86 716 80 636 28 690 31 796
4435 -0.55985167684188553 1.4779930878131973 1.4231735680019935 255 252 63 0.081268324159788366 100 565 80 620 39 446 86 463 28 226 31 219 57 232 72 241 66 294
4434 0.67280211322603445 1.2472504977034689 1.3973804638876117 255 171 25 0.55125334089798872 100 315 80 605
4433 -0.80225489362803926 1.6558096034089238 1.1787545123883101 255 242 60 0.14538770324110431 100 310 80 604 39 197
4431 -0.10317469129573782 1.8791086463005575 2.4543313887955267 5 4 3 1.9034368237684545 100 508 80 564 22 632 57 616
4430 -0.064955746196695252 1.9188890723830727 2.456450915225366 5 4 4 1.8190451065106121 100 507 80 563 57 430 22 367 39 404
4429 0.36135424674210032 2.1323357254504192 2.2919284439337466 252 228 173 0.14516885697204698 100 491 80 543 39 390 28 384 31 400 57 414 72 455 22 390
4428 -0.16013740057159778 1.8174472774189134 2.1975666636422608 23 19 15 0.18031458734913683 100 478 80 515 39 350
4427 -0.97914532132422172 2.3224465653720014 2.0466375349874557 13 11 10 0.074744865313829123 100 438 80 494 39 56 28 77
4425 -1.0834610012547135 2.2026146640031765 1.9910571856538621 11 8 8 0.37824081098832513 100 431 80 469 39 48
4424 -1.0124163249244587 2.1730551708286332 1.9827091183755419 15 14 13 1.5840801547518406 100 430 80 468 57 319 22 320
4423 -0.094718641784792862 1.650194700265589 2.0242426797087152 27 27 33 0.10788497661295533 100 140 80 450 72 337 66 398
4422 0.021917251743490598 1.5624356251235381 1.9607329668519689 93 90 100 0.11204894696125078 100 412 80 436 39 52 57 313
4421 -0.74860741454373181 1.8295629872580772 1.8128278136362692 11 13 19 0.25009853970379387 100 94 80 429 72 108 66 389 12 364 71 530 10 423 96 531
4420 -0.74828957295848908 1.8259764151022195 1.814046652017318 11 13 19 0.23858905726643861 100 93 80 428 72 107 66 388 71 531 10 424
4419 0.088820746994866459 1.3114340112058243 1.9396541146110253 178 117 26 0.30514171582992533 100 110 80 424 66 371 12 641
4418 0.73099471014580331 1.1149321175985958 1.8812228965006752 254 237 60 0.23039678855364962 100 390 80 397 39 305 28 330 31 314 57 297
4417 0.23770866583537478 0.89611674928996121 1.7358244536055323 30 35 44 0.29407778426830589 100 583 80 339 39 468 28 456
4416 0.15219102711873209 1.6777381856761491 1.4237937036107269 119 125 146 0.65304189127050827 76 680 100 329 80 325 25 906 16 379
4415 0.69971819191144646 1.7205542060083763 2.9452301441002757 238 218 174 0.077815845406221704 100 305 80 293 39 188
4414 0.61720774789552924 1.741374199716835 2.9141364640475569 100 65 49 0.23437205240831827 100 296 80 286 28 206
4413 0.60331571030821551 1.7791397817077652 2.8416263192672386 232 217 178 0.16141941248600777 100 536 80 277 57 495
4412 -0.36404589104415602 1.9589033365106054 2.5986155713389731 151 99 70 0.058046912701080568 100 236 80 256 72 209
4411 -1.1852186882056523 2.284951803016535 2.1957928187536839 149 103 79 0.035076488202529198 100 485 80 228
4410 -1.0165650487824405 2.2683611759975757 2.2144125244220194 99 69 51 0.092633140504057271 100 194 80 227
4409 -0.93409673337239929 2.2527182263825916 2.0822421975742973 12 11 11 1.7441058115598591 100 160 80 215 57 95 72 162 22 126 14 160 61 251 66 448
4408 -0.017375125994433773 1.8102432921923526 2.2239147624413182 34 26 18 0.14160302535188626 100 189 80 201 31 156 57 138
4407 0.16271974100157877 1.8392529768549333 2.1156538391155966 252 187 45 0.13180960756287841 100 154 80 183 57 120
4406 1.3400099996070045 2.2224333014019497 2.0874373223945937 230 216 181 0.3420004489745963 100 146 80 181 39 374 31 420 57 167 72 197
4405 1.404816061075695 2.2051550254176102 2.1131697662624132 231 216 181 0.19107249173162752 100 145 80 180 39 127 28 407 31 419 84 367
4404 -0.82429547247630386 2.0177495202440072 1.9124674184951358 19 18 17 0.20646837077970701 100 117 80 160 16 584
4403 0.59547965622209709 0.95371722474632825 2.1214361603863603 182 117 29 0.12432617675633299 100 439 80 141 39 113
4402 -0.1049239282585914 1.4572241848082379 1.8306293158196576 157 114 25 0.049802171586029065 100 87 80 104 39 287
4400 -0.56721255624862787 1.47725982505442 1.4527545684656673 255 209 48 0.18532027448611552 100 321 80 26 39 221 57 18
4399 0.37661710445754254 0.99823003849163483 1.5175277983700268 181 192 220 0.15256398783903272 100 9 80 11 39 229
4398 0.66343026550473627 1.9410649991630697 2.3427621195731891 230 215 177 0.99525994024517739 45 1129 80 1161
4396 -0.23099805446731994 1.8119310437973555 1.6161346238873098 36 30 15 0.61730339977908666 32 1116 88 941 11 1062 76 1208 45 1016 100 984 68 983 92 939 44 877 86 914 80 1045 39 869 28 836
4394 0.66343026550473627 1.9410649991630697 2.3427621195731891 230 215 177 0.99525994024517739 45 1128 80 1160
4392 -1.2703335844085313 2.323144021896157 2.3869383378728868 0 0 0 1.4533591813347961 25 1285 45 1119 76 1265 39 963 100 1082
4391 -0.95093315118376787 2.0476434807561579 1.6753511189072563 187 178 174 2.3487888318696224 100 1077 80 1148 39 964 31 914 57 1011 72 1071 66 1165 22 965 14 941 61 1075 71 977 10 837 6 1085 12 1120 52 1016 69 955
4390 -1.0665983629748232 1.7981989285641795 1.5045703852029819 0 0 0 1.1066361219885743 45 1108 100 1076 28 928 31 909
4389 0.3516259394714098 1.2006259386128331 1.367364899748722 0 0 0 1.3541427954376528 45 1107 100 1062 39 930 28 873 31 817
4388 -0.19823322097956322 1.9713456072773352 2.6327854223487508 112 76 59 1.5462925473953595 76 1230 100 1059 39 948 28 917 31 897 57 999 66 1120 19 970 56 1065 16 1147 52 988 63 807
4387 -0.67855011048447089 2.2407552899681304 2.1886986774865038 32 30 27 1.3268577398261405 80 1130 39 956 28 910 31 907 57 1004 72 1054 66 1142 22 952 56 1110
4386 -1.0596843540061318 2.2425624075630632 1.9861545297350787 36 34 34 0.48604726817751753 86 970 100 1055 80 1120 39 945
4385 -0.24161237557394252 1.7410651744747925 1.3299537779681943 0 0 0 1.0145602838376178 25 1237 76 1239 100 1043
4383 0.42379205046881913 1.1021418308903657 1.351906748549617 0 0 0 1.6312445711620178 45 1054 86 965 100 1011 80 1029 39 847
4382 -0.61920056506519339 2.1868057703092258 2.3442892219754197 222 205 166 0.20701040342801069 45 1044 80 992
4381 -0.98338460649065429 2.3046712899110742 2.1829791687471665 213 196 157 0.47924749310792947 45 1037 100 1000 80 1061 57 873 72 949 66 1019 22 846 71 785 19 880
4380 0.91482864574708023 1.2385497675177575 1.7198030946048055 255 229 62 0.56526203288182597 45 1019 100 987 80 955 39 876 31 828 57 919
4378 0.59906603094124111 1.6988893068393727 2.9943011326836246 137 91 65 0.60364509843811054 86 899 100 966 80 1073 39 843 66 1093 71 924
4377 -0.75859600004911276 1.8164313186751431 1.7646692818349468 254 236 62 0.4619954811783531 76 1176 100 931 25 1191 80 977 39 807 57 856 72 842 66 910 22 772 12 665
4376 -0.96671715619801735 1.8319725194722893 1.5641539796340009 184 188 212 0.90639419101188046 86 840 100 921 80 1044 39 860 28 757 31 819 57 912 72 975 22 879 14 819 61 981 71 840 96 705 6 1019 52 916
4375 0.47530277272038923 1.0426738754469023 1.508367997747057 30 30 0 0.47661833795142805 86 922 100 907 80 941 39 855
4374 0.1319747326442898 1.8478959814999094 2.9066013382024645 0 0 0 1.5443541040233282 76 1028 100 884 56 993 73 918 8 966
4373 -0.32320354850836197 1.9694232793795889 2.6636845202624913 221 190 149 0.73933972169120299 45 895 100 868 22 808
4372 -0.93595490108337764 2.2228375574783876 2.4055499423580522 208 178 138 0.19590513660104492 76 1053 100 849 22 795
4371 -0.11397561515625906 1.3772445855605007 1.9081779272700576 10 11 12 0.077608886286083131 45 838 100 816 80 872
4370 0.90756154925255372 0.80884855889615537 1.8160540141037465 0 0 0 0.20704155483088185 94 842 100 811 40 872
4368 0.35692832722344014 1.7023348833388774 2.9127130616649763 129 79 54 0.36583665935079018 25 372 100 782 28 430 31 642
4367 0.23076200860255933 1.7669533852615942 2.8133684432738875 149 99 70 0.41201656468239101 86 666 100 778 39 653 28 613 31 624 57 717 72 780 66 847 22 695 14 668 61 343
4366 -0.19047588221484923 1.9870491570725082 2.5784409842585361 114 76 55 0.72051032398636727 76 876 100 723 80 809 66 806 22 392 12 244 71 258
4365 -0.44000276503184332 2.4063752117377635 1.0551930411794186 0 0 0 0.33611209784036306 87 201 94 858 40 878
4364 0.033732005709245103 2.0080006529934269 2.5753172622768687 247 223 174 0.14415044737366983 86 578 100 721 80 795 39 589 28 540
4363 0.042655559176382918 1.8897828781606134 2.5630115421367821 247 223 174 1.2793769117003615 25 828 100 720 76 1016 39 590 28 541
4362 0.64340568929542563 2.0887725415091576 2.3421859026324641 251 226 176 0.24851163604200727 76 723 100 671 80 542 39 549 31 557 57 437 72 472 66 515 22 409
4361 -0.17192080183126174 1.6747726262856795 2.0627660812682547 210 213 234 0.24892454887893492 25 991 76 1003 100 629 80 706 39 713 57 573
4360 0.31176519384694512 0.93567069522562007 1.6511915050753139 16 16 16 0.2110285354277413 92 712 100 576 80 321 39 463 86 696
4359 -0.80775932495095348 1.5642651463694686 1.3142814481492338 255 247 64 0.10371650883119177 45 553 100 551 80 314
4358 -0.51933870177352903 1.5957897297163972 1.2338073116461925 255 246 66 0.035653065821648428 45 530 100 546 80 305
4357 -0.45785715712280656 1.5875040406063974 1.2488626333211545 255 239 71 0.18187665585723731 45 784 100 545 80 607 39 443
4355 -0.50108359320480234 2.8782555210901792 2.0851913851382804 24 20 16 0.69011073601411077 94 522 100 450 40 525
4354 -0.55995249759081733 1.7880462625802083 1.8052346911677659 254 227 62 0.31660313234611825 45 405 100 395 80 122
4353 -0.71150670128169591 1.822432609891282 1.7603823118817026 252 219 61 0.42716915272414907 86 472 100 386 80 108
4352 -0.12957016286116232 1.8476689003632791 1.594419132551482 221 182 61 0.15434049537337372 45 574 100 359 80 394
4351 0.67265700300489417 1.3253304707709328 1.5184793089683346 255 254 65 0.29684788183094302 86 492 100 324 39 240 80 20 28 455 57 247 72 260 66 34 22 271 61 140
4350 0.84940972602950549 1.209272474167336 1.4501936625881273 254 163 31 0.16109614413977422 25 436 76 435 100 319
4347 -1.3652088558988416 2.36267808822284 2.1328861785059443 138 95 73 0.13736110182837544 45 466 100 180 28 78
258 0.33605182666917904 1.8137754504021382 1.8317264621317388 83 54 8 0.217450342542613 95 692 97 670 17 711 41 678 51 652 36 569 30 563 83 583
5345 -0.59946727899621266 2.1280808521277459 2.0693050535546158 80 42 4 0.62585259489543688 10 301 71 405 19 385
259 -0.45546605648980992 1.9199790656309501 1.5841150486202422 255 216 58 0.12054554554322376 95 696 97 673 36 112
5349 0.26180637018360442 4.363992507370769 0.66313089714793749 64 57 56 1.9509187545753739 71 175 19 427
262 0.31628899091046342 1.8466974599018569 1.8414608222567441 112 92 24 0.18116797452997474 95 691 97 679 17 710 36 799 30 808 90 831 51 665 83 781 91 836 46 804 55 173
263 0.31638254235223451 1.846804352630111 1.8414317101625768 112 92 24 0.1795271977226085 95 690 97 680 17 709 51 664 36 798 30 807 90 830 98 806 83 780 91 835 46 805 85 342
5352 0.20141288559607004 4.3140160008894242 0.63029827964012131 143 134 145 2.1046844465985801 71 580 19 603
265 0.32086912182528771 1.8759560819924714 1.8657574507317254 84 55 8 0.30634199084209734 95 705 97 682 51 667 36 576 90 596 98 814 46 807 55 205 85 347
5353 1.3014470842252528 2.0322375324674469 2.7518129527897353 245 225 185 0.33244857608511308 90 859 19 606
266 0.67157253753555946 1.7734865678042451 2.8344842371445598 116 103 78 0.396425544324634 95 693 97 683 17 698 51 669 36 144 30 118 90 609 98 640 83 612 91 638 46 783 79 313 13 549 49 588 3 483
5354 0.4846493305600208 2.4094627312291239 2.3326535318947972 237 216 169 0.69956766776179347 71 700 19 646
267 -0.42008214476727229 1.9507393946612785 1.5228438244500131 245 195 51 0.21214627545302261 95 697 97 687 17 1031 36 114 30 93
5355 0.55039574492322818 1.7396392882413017 2.9365541141142559 155 103 76 1.7320949220713793 96 462 19 680 56 766 16 570
268 -0.41990988817337377 1.9508861134294928 1.5048441924112035 245 195 51 0.10882973265470215 95 698 97 688 17 1032
5356 -0.68112022348167567 1.5012506336342533 1.2033794699674756 249 0 0 0.92694577797939215 12 617 19 713 8 825 73 779
269 -0.27105914049212865 1.9562826478537019 1.4043288166597006 69 74 90 0.73768226502643963 95 699 97 689 17 766 41 1034 36 116 46 242 55 826
5357 0.42692000779923539 1.9145065709683173 2.1425892620089484 105 65 44 1.4681741419649479 71 909 19 771
270 -0.2380811727726875 1.9505692118548887 1.3940645085590104 155 164 190 0.52982128276694651 95 700 97 691 17 767 41 1035 51 81 90 81 98 75 91 70 46 801 9 161 55 266 7 230
5358 0.52787259315726864 1.0030098113448738 2.2199468023294431 0 0 0 2.2485492502120219 10 741 19 823 71 831
271 0.088776001596977697 1.9241527946781289 1.6493150259685456 57 40 5 0.25865061916254051 95 701 97 692 17 736 51 662 36 567 30 561 90 825 46 245 55 231
5359 -0.76245284331700225 1.8152345746467267 1.7701738437534396 255 241 62 0.63046332607580113 10 571 19 851 56 874
272 -0.50374200240131817 2.0489031273546425 1.4082596517106249 167 173 194 0.22297611982444643 95 739 97 695 17 783 41 1045 29 538 46 1042 33 418
5360 -0.49989671220989584 1.8861092176958099 1.96506812032665 255 241 63 0.21101439712820935 10 683 71 858 19 855
273 -0.39936703810965141 1.9964142990239069 1.4819030457891651 58 35 3 0.32974046967224979 95 717 97 696 17 785 41 767 51 913 46 800 55 264 29 173 33 105
274 -0.29999612437793893 2.0232054594495512 1.3919680951598101 247 205 57 0.10006970636561341 95 740 97 699 17 1039 41 1047 36 123 51 677 30 106 90 593 98 608
5362 -0.21299102229595374 1.876218260859468 2.2430771344329918 123 113 122 1.0132305439995319 10 757 71 911 19 931
275 -0.0011596139603995918 1.9985627089361779 1.5249097676456056 70 51 8 0.53264667112512687 95 254 97 700 41 769
5363 -0.75470600611820471 2.2261554014671918 2.2955063868398873 105 71 52 0.064961165245754959 71 881 19 940
276 0.13818068091196037 1.9818076085494962 1.5649898023869504 77 92 125 0.32425002427195943 29 507 95 719 97 701 17 787 41 770 51 680 36 131 30 570 90 604 98 623 83 591 91 840 46 1115 9 1049 55 1089 64 844 27 42 85 45
5364 -0.42407969829485592 2.0051488108096533 2.6905960677375917 0 0 0 1.5192746772897288 66 1030 19 945 35 832
277 1.0361446862686421 1.895063136900706 2.7355299316691357 237 220 182 0.33363217269605877 95 710 97 706 17 759
278 -0.3120607503884274 2.0709635681238923 1.3142313662491327 254 216 60 0.17792273917784815 95 741 97 709 17 810 41 812 29 541 51 676 36 124 30 104
279 0.84849257656421961 2.1046967965050465 2.3087885488417319 112 103 83 0.26404576936388074 29 516 95 764 97 723 51 736 36 630 30 632 90 635 98 670 83 848 91 902 9 1177 79 567
280 -0.59381046823716555 2.1942749844065847 1.3897934648291534 55 50 50 0.45560375139661863 95 777 97 725 77 111
281 0.64075348488572115 2.1642850556124884 2.2486512686430138 111 97 71 0.35009882919615093 95 781 97 730 17 832 41 798 51 732 36 626 30 627 90 650 98 852 83 843 79 562 85 130 50 302
282 0.64067598707453466 2.166430296756197 2.2469269835192835 111 97 71 0.26605944016764427 95 780 97 731 17 831 41 797 51 731 30 628 90 649 98 851 83 842 91 888 46 1146 9 1175 55 1104 7 912 64 532 79 561 87 686 94 602 40 598 26 528 60 507 13 641 3 301
5370 0.076614234782988733 1.6247050926597566 1.8542748668291587 175 130 31 1.9571482191314029 10 844 19 1036 71 984
283 0.72634713044663024 2.1467291018557373 2.2711022800186775 114 105 82 0.13984739361703316 95 782 97 732 17 833 41 799 51 734 36 628 30 630
284 0.66979187141984076 2.1653378006685737 2.2539389825103817 110 102 81 0.50437434478183452 95 783 97 733 41 272 17 338 51 733 36 627 30 629 90 651 55 279 87 356 85 284
5373 0.42375392936219741 0.90174112820090768 2.0753434532097224 255 198 54 1.392000786469632 19 1030 56 1129 16 1207 8 1108 73 1047 35 944
286 0.93130351463168848 2.1364664684895196 2.2908113201520615 235 220 182 0.14668153297685591 95 787 97 735 17 834
287 0.93130351463168848 2.1364664684895196 2.2908113201520615 235 220 182 0.14668153297685591 95 788 97 736 17 835
5375 0.25138386680661517 1.2840803373613294 1.4583553666250346 134 146 175 0.84380619037123006 19 7 56 13 16 367
288 -1.332736525287362 2.2603260215686949 2.2085549098495059 27 0 0 0.60781327075914837 29 991 97 749 77 551 48 429
5376 0.42745616310455986 0.8476933819668927 2.0584615772671366 255 198 52 0.32134685237695121 19 193 56 19 16 21
289 -0.14196747222561035 2.2481901846796415 1.5806200646671125 5 4 3 0.024880007357909083 95 806 97 751 17 852
5377 -0.96504132903910123 1.6330766020180474 1.3001080374009049 170 129 29 0.27288868308098591 76 207 56 51 25 209 16 412
290 1.1588451186205651 2.1916526639243812 2.1836109985904524 231 216 181 0.087918285657177811 95 827 97 764 17 1092 41 1067
5378 -0.91804219954798572 1.9456414663778636 1.7031280962328976 249 189 50 0.28491581034568453 19 63 56 113 16 204
291 1.1588451186205651 2.1916526639243812 2.1836109985904524 231 216 181 0.087918285657177811 95 828 97 765 17 1093 41 1068
5379 -0.053417345685759877 1.8501067082949934 2.3669826262639133 80 81 92 0.020807098507509014 19 108 56 139
5380 0.7861323531530654 1.6205167395439604 3.0629863277641975 76 52 44 0.41039470278695589 19 131 56 175 16 190
293 1.186143527617002 2.2229486416834812 2.1174414565733564 229 215 179 0.2663898843879785 95 1064 97 767 17 1096 41 1097 51 961 46 1366 9 1444 55 1297 7 1110 94 1055 26 896 60 880 24 970 15 892
5381 -0.10747779746524065 2.0260408240027772 2.4226844429607071 129 128 143 0.036413803152360327 19 444 56 191
294 1.2567646151143086 2.2034159052307243 2.1593230927396272 233 218 182 0.13051827370796243 95 829 97 768 17 1094 41 1069
5382 -0.2295161443049584 1.9707515536693927 2.3162624141466162 82 83 97 0.46594649679726546 10 326 56 195 71 200
295 1.3131929954753154 2.1802780449506227 2.1731837587685527 233 219 183 0.32290053731859525 95 830 97 769 17 1097 41 1071 46 1349 9 1446 7 1112 26 899 60 882
296 -1.3308624512812066 2.30366003477232 2.1821775866256985 155 108 84 0.45752730861019458 29 617 95 372 97 770 41 822 55 798 17 842 64 898 33 473 36 179
297 0.9683456202084546 2.2538536631127557 2.096172904755877 232 216 179 0.20698969211217425 95 846 97 778 17 1118
5385 -0.98323632703603281 2.2156062125476907 2.0011543384673849 78 79 91 0.17944031903012905 19 453 56 233 16 306
298 1.0659119126476264 2.2660532198710563 2.0532745261362262 232 217 180 0.31768972929267919 95 1073 97 779 17 1120 41 1121 51 977 36 316 30 667 90 886 46 1363 9 1428
5386 -0.98323632703603281 2.2156062125476907 2.0011543384673849 78 79 91 0.17944031903012905 19 452 56 234 16 305
299 1.4703556731307659 2.2730751867616283 2.0746299452350994 89 89 83 0.47457806014470216 95 1075 97 780 51 992 36 851 30 868 90 928 83 956 79 695 27 620 85 553 58 622 50 590 67 617
300 -1.1507253261681132 2.4800706323168744 1.9692702581840906 151 146 130 0.3945028969013456 95 861 97 793 29 868 17 864 36 320 33 649
5388 -0.91350430431788621 2.3000278622384962 2.076433018609928 158 154 169 0.1523340180785851 19 463 56 243 16 315
301 -0.82478270185895741 2.4162750837596381 1.2378184684195761 93 108 141 0.2614609217483192 95 1093 97 795 41 1168
5391 0.32276000399026661 0.92531638353218526 2.0417227451228697 255 197 53 0.66611336481405503 19 495 56 285 16 42
304 0.52691777790488892 2.3998759914974368 1.9167160039192601 217 202 166 0.1087409339212496 95 1095 97 801 17 1151
5392 0.04803909321781457 1.6984179290263675 1.5176413973039691 49 51 59 0.53591413803535615 19 205 56 314 16 394
305 0.52691777790488892 2.3998759914974368 1.9167160039192601 217 202 166 0.1087409339212496 95 1096 97 802 17 1152
5393 -0.95794760019516045 1.6378184958002988 1.386533768403746 56 55 63 0.28492986984813456 19 514 56 323 16 692 8 679 73 631 35 536
306 -1.0948213351819935 2.5152449139954269 1.9027567165455088 130 128 118 0.062245259233641881 95 1103 97 803 17 1157
5394 0.21290189937510837 1.6124352203955297 2.027761762520774 68 70 79 0.13854494085323643 19 228 56 335 16 424
307 -0.13691361100015315 2.5070452428347521 1.6677413117870941 3 3 3 0.35793696068872544 95 890 97 807 9 841
5397 -0.24456019671289028 1.729652552475152 1.7732699905006759 217 164 46 0.22083044966837648 19 221 56 358 16 453 8 84 35 81
310 0.18170661541019256 2.5304824301643873 1.7219031774060232 5 7 9 0.27175352646572626 95 891 97 816 17 891 41 882 51 1002 36 701 30 714 90 919 98 1079
5398 0.17394912306193619 1.7034447458340891 2.0570521254094039 231 166 42 0.10135838699485537 19 560 56 378 16 450
311 0.13131877510140552 2.5461627560076829 1.684252406764126 3 4 5 0.60909679123368687 95 1120 97 817 17 890 41 881 51 485 98 454 64 663
5400 0.14239492353701991 1.8292378214327998 2.1118591792097061 244 179 45 0.012998719663052946 19 576 56 428
313 0.24974208703507525 2.5632657531365326 1.638803919252247 45 32 28 0.75556307052168092 95 904 97 819 17 1178 41 1171 51 809 36 383 30 374 90 736 98 714 83 705 46 1190 91 983 9 1206 55 1343 7 1125 64 914 26 913 60 911 53 665 82 650 34 706 77 200
5401 -0.46805396350994016 1.7550129354581854 1.9281700518864193 199 202 228 0.20829269486783916 19 248 56 437 16 544
314 -1.0530465585166195 2.6482487886137163 1.6095029016290201 131 131 122 0.10468285407360971 95 893 97 829 17 904 41 906 51 432 90 305
5402 -0.068637093145733977 2.0112796220092561 2.4259914180954936 124 124 138 0.057430951135541364 19 443 56 488
315 -0.94507874180575169 2.6684615190271384 1.5272268764842198 118 119 110 1.2968894830314355 95 907 97 831 17 906 41 920 29 707 81 503 33 525
5403 -0.20588314359228768 1.9871909169602398 2.3498571156738812 159 154 166 0.19216170203070448 19 419 56 489 16 579
316 -0.82935320999905571 2.6413004478174589 1.6438684389693266 95 97 90 0.050061369692674593 95 898 97 833 17 908 41 911
5404 -0.17496487884599246 2.0337683929041299 2.3961292541566328 152 148 162 0.41116372212381602 80 235 56 500
317 -0.79577535113008557 2.6740711811168705 1.6008734689146595 102 103 94 0.19618925210660804 95 912 97 834 17 910 41 913 29 701 30 387 36 389
5405 -0.91857188005145951 2.1452275786752 1.9905129457208424 78 78 90 0.112897008987623 19 426 56 506
318 -0.79424112987301421 2.6727965916241359 1.5938773195237332 102 103 94 0.10034993633564709 95 911 97 835 17 909 41 912 30 388 36 390
5406 -0.79750717795821402 2.1639621045386046 2.0843715492648704 82 83 95 0.080978765733638255 19 447 56 512 16 295
319 -0.52290966683092421 2.6739151838538104 1.4550393547843359 49 61 85 0.18470927651940883 95 926 97 838 17 549 41 478 51 807 36 883 30 890 90 731 98 692 83 680 91 689 9 509
5407 -0.92042312961188588 2.2009449657144375 2.028035393532587 81 82 93 0.092296870957070329 19 451 56 514 16 603
320 -1.050356520386283 2.6975716823672933 1.586914040336425 78 81 74 0.36793021431172579 95 905 97 841 17 539 41 918 51 467 36 705 98 198 46 504 55 512 7 305
321 -1.0546698290610614 2.695434256272224 1.6120245894630802 78 81 74 1.5043419700082545 29 892 97 842 17 540 36 706 83 830 98 858
5409 -1.0462520310975629 2.5125105797968392 1.8421291278199436 127 125 113 0.399516512538522 19 465 56 518 16 877
322 -0.98349271115993164 2.7355706279407173 1.5171504588506619 126 127 118 0.11406053442442045 95 917 97 844 17 915 41 926 30 378 36 403
5410 -1.1032490843043368 2.5379900282133852 1.8178514056152291 138 132 116 0.15818246679727802 19 142 56 525 16 610
323 -0.98439431672404132 2.7361178713796259 1.5190140418087839 126 127 118 0.11195172012753035 95 918 97 845 51 495 30 377 36 402 90 408
5411 -1.1513033963223263 2.575699888505814 1.7835870003655296 161 155 135 0.44904436306214268 19 143 56 526 16 611 47 821
324 -0.85689790822248879 2.692374577629443 1.5621408055656159 114 115 105 0.1173250777533629 95 909 97 849 17 918 41 924
5412 1.0346378465493113 6.6087037621653391 1.6295259921560581 149 99 70 1.9369391533411222 66 567 56 535
325 -0.63898036653047918 2.6827864012059282 1.3439213523233899 71 73 69 0.38034180308767462 95 925 97 856 30 391
5413 0.2814320083940211 0.7549583163658572 1.898330214076146 149 122 40 0.2452066551002611 19 706 56 549 16 897
326 -0.54022430590536097 2.6947258750503114 1.4310289757635628 1 2 2 0.30938874647236586 95 1141 97 857 17 1195 41 1190 51 1007 36 884 30 889 90 934 98 947 83 895 91 891 13 772 49 546 3 450
5414 0.25299944115654799 1.5368093899675503 1.4023270373493233 109 121 148 0.67183785195426016 19 498 56 565 8 819 47 864 73 610 35 522
327 -0.1304520214453406 2.6830086846130521 1.4625355395046229 28 21 18 1.0820653773241549 95 1145 97 858 17 1198 41 1192 51 1013 36 714 30 722 90 738 98 712 46 1411 41 1332 9 1200 87 1024 40 737 87 853 24 576 15 530 93 547 18 473 70 301 23 218
5415 0.014634618543461386 1.1620689000755651 1.8082183762005739 68 65 68 0.18874769781843406 19 504 56 572 16 375
328 -0.025520438625669838 2.6952708692570191 1.4499856019764199 29 21 19 0.41051486174885848 29 681 97 859 41 1193 51 822 36 432 90 739 33 498 81 448
5416 -0.59302515900548625 1.5042578159364506 1.5465633204840303 59 58 67 0.082204279754172993 19 511 56 587 16 665
329 0.031801037994487212 2.6784233855321924 1.4823172930149471 31 23 20 0.15179724551391854 95 1146 97 860 17 1199 41 1186
5417 0.11107011754283368 1.3571408201429567 1.9875724578181508 62 62 70 0.11307947486735458 19 519 56 588 16 404
330 -0.69554294307003739 2.7700571505645817 1.4422425059207244 109 110 103 0.14848851890598896 95 938 97 869 17 942 36 422 30 413 51 537 90 459
5418 -0.1553578337032713 1.4635383981967838 1.9247930853994768 190 189 210 0.26930409196708416 19 524 56 600 16 674
331 -0.69546292034005808 2.7693839739751573 1.4352031377203096 109 110 103 0.029519867054955906 95 939 97 870 17 943
5419 0.17926678511272062 1.8906981345188179 2.2065683254914386 69 63 65 1.9456007968450375 80 902 56 647 16 160
332 -0.39199855107938686 2.7406755136270626 1.4275322846447289 65 75 76 0.35342040889041104 95 940 97 871 17 931 41 1194
5421 -0.75357126853689171 1.8263142848628156 1.8124453669581246 28 26 23 0.10290777521763256 19 567 56 653 16 786
334 -0.72388232021061705 2.8222683864736826 1.3542821792633588 121 124 115 0.080235943505066326 95 962 97 879 17 956 41 1202 36 453 30 445
5422 -0.81337604429816379 1.8460292002043548 1.78255519322798 158 101 30 0.1768492318084264 19 568 56 654 16 817 8 734 73 683 35 610
335 -0.72363512089375603 2.8215925648468891 1.3518657511335306 121 124 115 0.065721502460246203 95 963 97 880 17 957 41 1203
5423 -0.81559058328916989 1.842035842449653 1.7844500769886591 158 101 30 0.11004074288507426 19 569 56 655 16 818
336 -0.80281297744340507 2.8737950432120329 1.2975659339835885 124 128 120 0.097742838461791048 95 971 97 887 17 965 41 955 51 829
5424 -0.96631238987483192 1.9660529098487942 1.6667535358349432 67 67 74 0.24609634667226429 19 575 56 656 16 833 8 738 73 690 35 613
337 -0.68791863465413827 2.8543639354435393 1.2953767647512413 128 130 120 0.14373815000025308 95 966 97 890 17 969 41 961 51 832 36 725 30 733 90 512
5425 0.010054136537405054 1.8605608808119507 2.4926646326442961 231 211 170 0.25714977500214597 19 624 56 745
338 -0.68788959679489958 2.8549014888136557 1.2976864278317328 128 130 120 0.24302596495675591 29 748 95 967 97 891 17 968 41 960 51 831 36 726 30 734 90 513 98 530 83 462 46 922
5426 0.69988321234614015 1.6826614885566371 2.9793345616966445 226 212 177 0.34486034909010532 19 455 56 749
339 -0.53102290240441141 2.8438984735929771 1.2771498349192498 37 26 23 0.17067551149597601 95 968 97 892 17 972 41 962 29 385 33 344
5427 -0.9001401651744334 2.3075981847370621 2.1074406876329537 11 10 11 0.18519585657395163 19 687 56 785 16 874
340 -0.40720096108088449 2.8367325650581328 1.2609729473430182 36 26 23 0.51970870052762108 29 727 97 893 17 578 36 730 64 410 33 536 77 234
5430 0.080469799587513907 1.3565639340496398 1.955132660709056 229 170 45 0.14984638803025024 19 829 56 830 16 917
343 -0.73582058174979104 2.892265493015818 1.2654019413097706 94 96 88 0.47784108165319811 29 754 95 977 97 899 17 1216 41 1216 51 837 36 481 30 476 90 510
5431 -0.41394432762421668 1.7451780471510219 1.95534029036844 25 24 25 0.12304239966034158 19 849 56 872 16 960
344 0.26067125962991267 0.99749619453235905 1.7182595937885583 45 44 49 0.16937854269039543 95 990 97 910 17 977
5432 0.44955465551218327 1.3010005548662296 2.7369630491159969 0 0 0 2.9543769209675488 19 858 56 882
345 0.26067125962991267 0.99749619453235905 1.7182595937885583 45 44 49 0.16937854269039543 95 991 97 911 17 978
5433 1.1135200369235883 1.8839847607545794 2.7504590414823573 241 224 185 0.50701850085123146 19 795 56 883 16 723
346 0.21614224478680047 1.0281010878514001 1.7132536174437201 8 11 16 0.17080751673696937 95 609 97 916 36 747 30 754
5434 -0.027249009266898008 1.8971195446112035 2.3915710884115224 118 116 129 0.29172095701706141 19 862 56 893 16 970
347 0.063253420120649287 1.1873389170392326 1.6814277949087579 137 150 181 0.20231437478902251 95 1179 97 920 17 1244 41 1233 51 595 30 25 90 15 98 15 83 11 91 5
5435 -0.1351219760610666 1.9043747332152448 2.3403421980733246 141 134 147 0.25677644160060276 19 863 56 894
348 -0.81811877368563779 1.7043174262206575 1.0985621687615093 254 233 79 0.66612276277880134 95 1205 97 930 17 1410 41 1383 30 514 36 523 90 783 98 760
5436 -0.13420736971210462 1.9065482033813899 2.341441222278938 141 134 147 0.38476513902391368 19 864 56 895 35 741
349 -0.4318593041648956 1.6533278829513225 1.1932438025346641 250 203 62 0.14790093293132534 95 1010 97 931 17 1264
5437 0.59167751057805817 1.7450211264818938 2.8689565426181995 229 215 179 0.43870443229556116 19 658 56 896 16 968
350 -0.4098553814513301 1.6335724570164747 1.2107485432061598 242 204 73 0.76081354448772087 95 1200 97 932 17 1265 41 1376 36 531 51 621 30 526 90 553 46 1234
351 -0.13837586999458137 1.5299445354928922 1.8378131597807104 29 32 36 0.21323278148340843 95 653 97 933 17 653 41 994 51 883 36 765 30 782 90 796 64 52
5439 0.17878032806057681 1.356487828883266 1.9647205103524359 234 161 39 0.78058592727629339 19 919 56 943 16 916
352 0.25899272768256731 1.587007665505942 1.4037570206756331 8 11 16 0.46972110341421996 95 654 97 934 77 494 58 481 85 443
5440 -0.19002672085148317 1.9017996773726009 1.5013001121034806 242 202 59 0.340021005381062 19 525 56 948
353 -0.78165226509655605 1.7632550912625327 1.0257957587468784 252 225 71 0.32521346249315342 95 1017 97 936 17 1279 41 1389
5441 -0.70446617679453671 1.7961520750035773 1.799248797640483 255 241 61 0.41824916018860131 19 850 56 966 16 1057 8 866 73 819 35 723
354 -0.73076787828160483 1.7203335490547345 1.0790194848414867 112 88 20 0.16913684338419782 95 1018 97 937 17 1007 51 624 30 532 36 538 90 561
5442 -0.07117700429430282 1.965401673368032 2.4140608051663115 137 128 136 0.25992067542768588 19 866 56 983 16 971 8 746 73 699 35 744
355 -0.73590247816013099 1.748326140573141 1.0535096838526794 252 227 72 0.6215180248381742 95 1019 97 938 51 625 36 71 30 55 90 560 98 568 83 530 91 553 9 974 46 1239 55 1388
5443 0.78285060396148576 1.62722850966702 3.1403851747792415 226 193 151 0.38909069505851562 19 873 56 987 8 956 35 739
356 -0.42086548042664168 1.7140154237325409 1.2211601674493104 105 94 28 0.19482381114278532 95 1020 97 939 30 781
5444 -0.25065711485774861 1.9355094299556812 2.7560447339270189 0 0 0 0.20991193616444173 56 997 8 894
357 0.051672268366867474 1.6169968362499687 1.4908471474008125 208 179 64 1.5388439625932449 95 1011 97 940 17 1267 46 1242 64 1012
5445 -1.0440100378187811 2.2224043800632014 2.3186269942718445 150 97 67 0.56594347469407802 19 893 56 1001 16 1082
358 0.2660512724906916 1.6265189298469485 1.5695035437240439 149 125 50 0.58292031180945714 95 1015 97 944 17 676 36 937 30 957 51 1056 90 1082
5446 0.38951696697567095 0.90917497835161321 2.0622832093833114 255 197 53 0.76364661327302341 19 905 56 1009 16 1016
359 0.34313389443769571 1.6276277262673549 1.5537129803216316 104 89 25 0.28434101811294688 95 1016 97 945 36 782 30 788 77 507 58 489
5447 0.082170210881388359 1.6592527634318461 1.3828538834358606 0 0 0 0.90498635536780014 19 911 56 1013 16 1093
360 0.22223681053875308 1.6858709832238548 1.5566950633051972 143 120 51 0.72665179874352415 95 666 97 952 17 143 51 1062 36 781
5449 -1.3072120150706339 2.3055823312816122 2.1872922477778367 69 49 46 0.93237211676020459 19 948 56 1041 16 1118 8 1060 73 1004 35 897
362 0.13058876047193929 1.7850692861783131 1.4106488090347398 27 35 52 0.17354000314333393 95 1031 97 958 17 694 41 707 51 637 36 546 30 539 90 574 98 587 83 560
5450 0.01902357843867734 1.8762531856033 2.4240355906386304 9 9 10 0.7869130507727462 19 932 56 1061 16 1146
363 -0.90765503424686023 1.9067134785934154 1.4833482782125622 28 30 38 0.11606174664530471 95 1032 97 961 17 1022 41 1023 36 788
5451 -1.2385964541591143 2.4801736591339969 1.8706564488335475 164 153 126 1.2618210242444605 19 936 32 1099 56 1068 34 1036 82 949
364 -0.90967255530281754 1.9052536626693941 1.4907967125102979 28 30 38 0.26035084077740089 29 801 95 1033 97 962 17 1023 41 1024 33 594 81 380 2 97
5452 0.24065831395642254 1.3526082094471263 1.3736731754070459 235 193 60 0.61154357866180231 19 954 56 1074 16 1153 8 1034 73 977 35 840
365 -0.23648865638411673 1.8810776280073329 1.5578680579686677 251 211 55 0.65603845212840828 95 1228 97 965 17 1297 41 1267 36 556 30 550 51 905 90 583 98 595 91 813 46 1258 9 1278 55 1392 7 1199 87 1236 94 1104 26 980 60 990 24 1095 15 1019 88 855 68 921 92 872 44 871
5453 -0.80529459133256842 1.9529163689267739 1.8301302244794446 255 196 52 1.0538061497676154 19 998 56 1094 16 1184
366 -0.90400671138956856 2.0283363208927585 1.5641735836289563 34 36 47 0.50333272513798588 95 1040 97 971 17 1301 41 1275 29 976 33 603 58 350 77 524 48 535 81 581 2 608
5454 0.33139219867449166 1.6519170480869392 2.87111924496332 0 0 0 0.51951447906963744 10 816 66 1143
367 0.19269276558556667 1.9719508778626287 1.5701251544023771 70 87 119 0.27863295036406538 95 1044 97 974 17 1036 41 1030 36 807 30 810 90 837 51 921 98 811 83 784 91 841 9 1050
5455 0.2057742510894944 1.6035310123799245 1.532382219517717 0 0 0 0.89278497381068045 19 988 56 1098 16 1173
368 0.31739275665002897 1.9801982569973893 1.9135464552311001 114 94 24 0.18827498288051137 95 1045 97 975 17 1037 41 1031
5456 0.2057742510894944 1.6035310123799245 1.532382219517717 0 0 0 0.89278497381068045 19 987 56 1099 16 1174
369 -0.76534094340065695 2.2022250357194428 1.2057741020575776 145 126 39 0.12559107239816281 95 1061 97 982 17 1069 41 1289
5457 0.36383386704291237 1.0056316136577814 2.0778039759668263 255 196 52 0.81570723330286743 19 986 56 1100 16 1171
370 -0.70055089046381558 2.2168408489429168 1.2401982606952155 26 32 46 0.19564823860455133 95 1062 97 983 17 1102 41 1139 29 827 51 930 36 818 30 824 90 841 98 808 83 782 91 604 46 1107 9 787 55 858 7 285 87 91 33 615 77 527 58 513 48 540 81 585 2 613
5458 0.068991912628026619 1.6870721456701028 1.4644383307947173 199 154 38 0.89177181127586613 19 990 25 1260 76 1237 56 1101 16 1175
371 -0.83100663624257842 2.2351893366549702 1.2932550277062933 113 119 143 0.17230371686804855 95 1058 97 987 17 1101 41 1138 36 822 30 823
5460 -0.89903304127890893 2.0516297738444158 1.885546700365764 57 55 60 1.2814275569261455 19 1013 56 1121 8 1106 73 1046 35 931
373 1.0699447426281969 2.2908604613708028 1.982134730522789 50 32 26 0.54819611826374992 95 849 97 994 17 1121 51 788 36 664 30 668 90 400 46 1364 91 998 9 1441 55 1416 7 1236 87 1348 94 1215 40 1214 26 1063 60 1073 53 1000 82 757 5 901 44 906
5461 0.79218379397740279 1.6638705292217888 1.9761872256577613 0 0 0 1.2769376568749067 19 1035 56 1130
5462 -0.64614414502802298 1.8924014519091423 1.6138029348382936 0 0 0 1.8441824504420148 10 851 19 1043
375 -1.2115412619059143 2.421728485701486 2.0623495998828028 227 212 175 0.27080969280580924 95 1078 97 998 17 1126 41 1294 51 939 36 642 30 839
5463 -1.3649310514716968 2.3708832203536461 2.2676941577097742 0 0 0 1.2172876616207282 66 1023 10 714 25 1066 80 906 39 714 72 876 56 1043
376 -0.80238256333379876 2.3779478255014097 1.3102864220125345 124 137 165 0.49022861862191175 95 862 97 999 17 865 36 619 30 164
5464 0.42333940139618598 0.86151927249743554 2.0890040465783382 223 159 43 0.84344037292207386 96 609 72 836 66 983 71 815 12 968
377 1.4228188670936639 2.3368326946689413 2.0646702544888678 0 0 0 0.65801262804746274 95 1088 97 1002 17 1145 36 982
378 -1.276211935827017 2.4411926280860694 2.0328439798743214 233 218 181 0.18983764553797969 95 1076 97 1003 17 1124 41 1293 30 849
379 -1.2455011256134469 2.4658996238458082 1.9853904662843342 214 202 169 0.35806768849470721 95 1090 97 1006 51 747 30 641 90 633
380 0.44594790170979215 2.4064198115256175 1.776534742746712 212 196 161 0.73995776747063058 95 1094 97 1007 17 1150 41 1154 33 442
381 0.5652229095939032 2.4316930973181421 1.8456767408779362 219 204 168 0.40946058165542831 95 1110 97 1008 51 985 98 955 83 939
5469 0.69673607446216179 1.0686382034278865 1.2893397120229018 243 213 65 1.2097958728830778 96 689 72 1001 22 911 14 855 32 1135 11 1077 45 1081 100 1041 80 1101 39 950 86 991 28 898 31 857 57 953 72 963 6 1033 52 971
382 0.62639493278568092 2.4114659475184137 1.864012943223468 220 205 170 0.26954174987163454 95 1099 97 1009 41 1155 51 986 90 903 55 1326 46 1383
5470 0.85452122993138779 1.6530834647478621 3.0353615782381751 222 206 169 1.4610653100586595 12 1077 71 920 78 600 54 630 32 978 17 1281 41 1255 51 908 98 1049 83 1023 91 1080 9 1487 40 1205 15 1054 24 1061 68 879 87 1006 43 766 11 978 92 979 44 914 44 944 76 1005 76 1174 25 1116 86 958 86 984 100 1009 80 1071 39 929 28 864 28 896 57 977 72 1044 66 1131 56 979 16 792 70 952 19 798 50 505 67 528
383 0.66996544351066711 2.3793252710218371 1.8143057338006074 222 207 172 1.6756827336541651 95 1100 97 1010 17 1155 87 1123
5471 0.29626159484395559 1.1537320612606612 1.8757642986497414 156 128 50 0.54603751811160006 56 289 76 514 16 44 25 505
384 0.73600736972819125 2.3875108506018563 1.8420573359286401 34 22 17 0.54194438708832149 95 1101 97 1011 17 1156 41 838 51 987 46 1384 55 1327 7 1235 33 180 48 140 81 128
5472 0.29616896436417628 1.1503303017255504 1.8759789453790541 156 128 50 0.30498241492256628 76 515 16 45 25 506
385 0.98580024475178951 2.4335609839416175 1.8411469465529264 87 87 81 1.275411207215756 95 1112 97 1012 90 1051 17 1165 9 1220 49 1082
5473 -0.67619439892442468 1.7928211322811793 1.8174801294739411 255 232 67 0.14346265530773161 56 91 16 185 8 134
386 1.0818392809193071 2.403966528505765 1.8869539280029441 86 86 81 0.76089531217832906 95 1102 97 1013 30 1001 48 552
5474 -0.78535282386820593 2.9215590078505098 1.1813241334081497 173 169 149 0.13614641144815079 47 942 56 110 16 228
387 0.26768585971843234 2.4983865827591987 1.690730551624924 2 4 6 1.3135800129064814 95 1121 97 1022 36 866 30 871 83 936 9 1373 58 393 77 562
5476 0.19785615789735683 1.8276468940519142 2.8135447432381513 109 75 62 0.092323309037699974 56 221 16 260
389 0.43506877731359678 2.4683423785483352 1.5000415749195424 106 75 61 1.6278501566208921 95 1269 97 1026 51 805
390 0.61611728359223261 2.4483757966556539 1.8255205540176527 109 77 62 0.64438759896753628 95 1265 41 1418 46 1382 9 1424
5478 -0.85977727322921516 2.2414912525274229 2.0928798398628938 78 83 99 0.071439056992529781 19 460 16 304
391 -0.54819434856823046 2.5084466684826494 1.3395680391194233 57 63 83 0.50115017990286093 95 1116 97 1032 17 899 77 653
5479 -0.63058562090642278 2.0594320131980401 2.4549037623958339 106 71 53 0.065784360090447414 56 254 16 309
392 -0.48994153636108634 2.5135825895380943 1.3489005572116657 55 68 95 0.20246671949687475 95 1118 97 1033 17 1175
5481 -0.16441015430119224 1.4355916106703128 1.8923031894022855 120 99 40 0.31452659608861544 56 55 16 410 8 420 73 379
394 -0.8170799726120862 2.6260623547600388 1.7036512143014901 59 62 55 0.26051153306619618 95 1125 97 1039 36 984 30 1003
5482 0.22062804441875039 1.6209885599021105 2.0265605557604687 75 75 84 0.1111469740788144 56 334 16 423 35 339
395 -0.78190768371137498 2.6063676749302842 1.4288824891120362 59 62 55 2.4296199077531977 95 1126 97 1040 90 894 51 981
5483 -0.71319576774603599 1.8608175785670487 1.6674303756416038 84 85 99 0.31512302285613975 56 411 16 522 73 111
396 -0.58217372185339411 2.5714990527456294 1.3525177443742373 56 62 82 0.15210798438398118 95 1127 97 1041 17 1187
5484 0.24223278919726698 1.7386158914917951 2.8467322092708951 49 28 20 0.30618297904378283 56 507 16 575 8 504 73 451 35 397
