# 3D point list with one line of data per point:
#   POINT3D_ID, X, Y, Z, R, G, B, ERROR, TRACK[] as (IMAGE_ID, POINT2D_IDX)
# Number of points: 357, mean track length: 5.0524404086265609
3018 0.44422095060987443 0.17660656831571775 2.2134093547515885 76 142 76 0.65468258514977951 34 981 59 1529 37 1510 100 1828 85 1474 64 1610 60 896 79 889 26 1394 20 1324 27 1519 7 1383 80 1224 75 1134 46 1102 39 1109 11 889
3017 0.19259911655875639 0.096139887690910225 2.2933684334965547 122 150 99 0.065992554086576394 77 1559 59 1524 37 1521
3016 -0.11337109651269868 -0.081151845429629124 2.2676930468556766 151 162 113 0.20216406249610702 77 1564 59 1513 37 1502 82 1590 76 1462
3015 0.65343456969664826 0.06850284996195774 1.8524772978831594 255 255 255 0.61764915108921747 59 1452 37 855
3014 0.37434264728586703 0.035057808031671758 1.7620565380261848 44 75 39 0.36610215428341364 77 1472 59 1450 64 1218 7 1072 75 873
3013 0.50652826554154884 0.085330936138822588 1.6953813243848666 227 229 242 0.43204431761029571 34 1434 59 1434 37 829 74 881
3011 0.022548384613223321 -0.13918097025269849 1.7522274751541571 163 162 111 0.14428905410347115 77 1487 59 1425 37 1419 100 1370 35 1429 85 1379 60 1331
3009 -0.057775372160780936 -0.21438967290535962 1.7579580630304565 57 110 60 0.36691941309476356 77 1957 59 1412 37 1409 63 1672 82 1946 85 1375 55 1802 49 1710 43 1818 61 1925 76 1742 60 1328 79 1305 53 1189 65 1173 93 1197 18 1133 52 1104 19 1012 41 932
3008 0.41684580088309986 0.010374738339076579 1.6174811091807033 150 149 159 0.15313996780029368 77 1458 59 1410 37 1407
3006 0.18829357309117556 -0.18176874411851879 1.4978608040763202 81 58 37 0.60029392641350776 74 1748 59 1392 82 1918
3005 0.19213751678898833 1.2619148409196723 3.2135090033999694 0 0 0 0.028101496891767056 59 1390 37 1394
3004 -0.10198697926210831 1.1697444597332831 2.9918018568189919 114 111 110 0.64279249594017285 35 805 59 1373 37 1363 100 1752 85 732 64 1514 60 654 79 1164 26 1184 20 1117 27 1417 7 1314 65 498 53 1045 93 515 18 471 75 1259 69 594
13277 0.04073247123332828 0.46510984919790721 2.7177125283263366 48 89 45 1.0075333516225036 16 2163 74 2410 95 2300 2 2073 34 2497 35 2505 62 2082 24 1982 77 2682 63 2281 54 1920 82 2645 55 2415 49 2321 43 2450 98 1755 8 1786 31 1710 33 1893 41 1652 44 1459 9 1396 52 1910 19 1774 30 1208 78 1357
3002 0.17616784215667797 1.1228865626439133 2.8366723158592948 70 127 67 0.12911686708028927 35 1394 59 1341 37 1319
3001 -0.18637333802248091 1.0738561897857508 2.7988857054918381 69 123 63 0.26108446246537315 35 1366 59 1333 100 1269 83 990
3000 -0.52281885420294338 0.94079267383623566 2.7962672011998486 246 225 137 0.051975756798618086 34 1292 59 1328
2999 -0.65497435627664791 0.90242755520571771 2.8360957400098967 107 164 82 0.41686296128398836 77 1427 59 1326 82 1884 43 1305 61 1398
13272 -0.15426112711291362 0.99007582438692421 2.7578220242019325 0 0 0 0.15131694295969794 75 1019 80 1093
2996 -0.50386540360154386 0.85867821795667132 2.7565544900119203 159 175 101 0.20439811378906747 77 1380 59 1284
2995 -0.52130487962004302 0.85967199473305023 2.7672508383058592 219 208 128 0.45161462759835275 77 1893 59 1281 85 1210
2993 -0.077504746455511517 0.88189746879231889 2.7321563758198373 68 123 67 0.063455604047632036 35 1323 59 1267 83 961
13266 0.32534551997504257 0.15371578227602054 2.2140038341747275 0 0 0 0.17905762849707757 53 802 93 213
2992 -0.71865236235840135 0.68797221793947783 2.7769749718386163 95 155 77 0.086332828924521959 77 1396 59 1261
2991 0.30045384584008866 0.97465395016228074 2.7430868327575997 103 85 64 0.76996099000615237 77 546 59 1256 100 1664 82 490 64 1701 60 427 79 408 7 1665
13264 0.4295805628102139 0.45758147472132121 2.2585988039765481 50 99 37 0.19320117139989723 55 1788 49 1686 43 1823 76 1765 33 1563 9 1002 65 1566 52 1591 19 1459 41 1376 61 1952 94 1085
2990 -0.094216505175574131 0.8705784025975426 2.7298907436474029 75 125 68 0.13669982831212624 2 1055 59 1252 54 837 98 729
2987 0.31888129454231734 0.92063374633209216 2.6699289096660133 100 77 54 0.11488925334672248 77 1240 59 1231 37 1186 100 1194
13260 -0.9093289132603285 0.52237346999990253 2.8197649708466099 86 123 59 0.19873318094692435 61 760 60 595 41 462 9 322 63 702 82 775 55 730 94 286
2986 0.070902524262563785 0.8411912088249387 2.7360392947365511 77 130 69 0.0039020113980032991 74 1234 59 1219
2985 0.054894630152289597 0.80721299773191291 2.7396844586464431 73 132 68 0.022974937576166705 35 1309 59 1218
13258 -0.84373382061737379 0.22201978969316374 2.8731075346486534 82 117 47 0.86383042015170963 41 1716 9 1419 94 1380
2984 -0.8608620560331266 0.42061971335116494 2.8228699843033396 78 122 52 0.26747586793953609 35 1639 59 1208 37 1188
2979 -0.53822079088167418 0.47776307656715755 2.7176390669967661 78 130 63 0.068819073166426728 16 974 59 1178
13252 0.39401173336189865 0.80851492306489414 2.7429462693488871 0 0 0 1.6892948504852321 19 1771 41 1688 9 1356 94 1347
2978 -0.56339670606757397 0.44579549580596906 2.7244635747730861 130 162 84 0.28279889321048318 35 1176 59 1177 100 1118 64 375
2975 -0.68469266770963433 0.21731111889538429 2.7720006044245173 77 127 62 1.3599607660770547 62 781 77 550 59 1133 37 1105 54 669
13248 -0.8332708996235888 0.2195961127144774 2.9839178317781396 221 196 151 1.0684728395668097 33 1692 9 1287 94 1246 96 1422 13 1455 22 1372 99 1035 36 938
2974 0.083537365034607305 0.42924516080193265 2.7167493976044099 134 127 80 0.19640900240379475 35 1191 59 1125 37 1095
2973 -0.66444540576534761 0.1412736664700828 2.7415442076821881 105 140 52 1.5091852542431996 34 1038 59 1112 37 433
13246 -0.94831690230914745 0.57990099659552152 2.9227318149211778 108 128 68 1.1520544589503998 41 1630 52 2021 9 1280
2972 -0.25339294970914866 0.20786034181695451 2.7171014733770216 85 145 65 0.08300131073475478 35 1123 59 1103
13245 -0.59328459297005864 0.10395206976832634 2.7716567082398478 137 131 75 0.25940288953683033 41 1544 9 1279 94 1238 22 1225
2971 0.38104733466165225 0.72014259341765108 2.2628942953571971 252 241 209 0.17912219310607388 34 1149 59 1095 37 1052
2970 0.40712444534229225 0.25863163586036131 2.8043149096278981 145 155 89 0.2922245707909828 77 1621 59 1091 49 1391 62 1643
13243 -0.45512364031715319 0.0056893909066091887 2.7490947611014782 143 137 79 0.52886240243753324 41 1540 9 1274
2969 0.40722633043515866 0.25908275021258431 2.803834352219877 145 155 89 0.29476127640939337 34 1577 59 1090 37 1063 63 1312 62 1642 49 1390
2968 0.29094487405669756 0.096313623075088103 2.7948837012334979 209 210 115 0.22838447270173479 35 1098 59 1064 100 403 82 320 77 1056 61 366
13241 -0.54316848417315033 -0.073529220389431701 2.247823331681186 90 122 55 0.51127036803279513 41 1515 9 1264 94 1219
2967 -0.73577158021502842 0.18485622812268948 2.2699052607173424 255 255 222 0.26100554048040975 35 1006 59 1050 37 1018
2966 -0.30720245619578029 -0.20380540093642097 2.8191634148778362 101 107 63 0.55089620255894767 74 1429 77 1627 59 1038 37 1585 85 1048
13239 -0.13886358511999494 0.68967672327651119 2.6868792667438632 92 182 81 0.097686722995475678 41 1506 9 1241
2964 0.61514180258431705 0.15438790036104977 2.0573690446800619 165 164 174 2.1095812649368333 35 977 59 936 85 186
13237 0.27557176151802226 0.7608609475735153 2.7701301241667431 58 105 45 0.86561931976294648 41 1495 9 1233 94 1097
2963 0.16214973732838939 0.042491098276266834 2.0121843051585127 61 122 67 0.18355975510284173 77 963 59 932 82 968 55 130
13236 -0.5345891690588459 -0.020531657894704559 2.7888701799057278 175 171 110 0.44937723725007661 41 1458 9 1212 94 1160 36 1030 25 635
2961 -0.30210186626808017 -0.29110218505506319 2.1238148001777075 128 99 62 0.3806990557817439 74 52 77 225 59 909 82 1003 55 326
2960 0.52006019278638982 0.11213033919453773 1.8694909060713563 170 176 132 0.25371888805411308 35 928 59 894 37 864 100 860 85 116 64 791 7 694 80 604 75 553 39 845 69 382
2959 0.13676585633975125 -0.096020167785485624 1.7226492400215665 69 121 66 0.11543489704369239 95 86 59 868
2958 0.11892733654163246 -0.093452844509018487 1.7246019848633174 142 152 103 0.020493517751666593 77 900 59 866
2957 -0.042791619233483881 -0.1752948165779965 1.7802873455239245 69 125 66 0.28442093939249619 77 907 59 864 100 815 85 848 61 895 65 747
13230 -0.38321484906953562 -0.25774217339907796 2.2342204693151291 102 75 49 0.91114738081389401 41 1413 9 1175 94 1117
2956 0.23049561391686252 -0.094336387468243812 1.6629614932062686 145 152 111 0.063752457968743556 34 821 59 845 61 849
13229 -0.046478716946316938 0.42960692888277707 2.6885040025811713 170 164 106 0.11427409376302503 41 1397 9 1154
2955 -0.16577017611394546 -0.28948681541289656 1.6945452360338309 206 207 220 0.73735611156718128 74 2 59 839
2954 0.07693203087474916 -0.19145241330997448 1.570389903398046 140 111 86 0.39927203305838932 35 6 59 830 37 22 100 11
13227 -0.80788590739677768 0.15546319808754039 3.0517930837598781 86 69 50 0.41621893274096716 33 1375 52 1557 9 1117
2953 -0.014670692780426738 -0.22644958585141195 1.6237239714589629 201 196 203 0.30909451849537151 35 14 59 829 100 9 85 813 64 9 60 31 79 32 26 30 20 14 7 13
13226 -0.79236653597861018 0.1457453734192321 3.0285883088991392 213 190 147 0.56183145818041913 41 1353 9 1116 38 673
2952 0.17306315775037123 -0.14836297651539729 1.5010103988389303 34 17 5 0.47978462888283852 35 1419 59 828 37 791 100 787 85 801
13225 -0.26935649121119626 -0.31467819699378807 2.9635115099742904 255 255 219 1.1757955878201907 41 1326 9 1112
2951 -0.30192093850000307 1.1556715897650838 3.1015129038606095 118 98 78 0.15349070132356063 35 802 59 813 37 774 100 1328
13224 -0.54083301338333423 -0.06778972096460413 2.8504012975568287 74 132 53 0.51306881310107488 19 1388 9 1106 94 1054 13 1155 96 1262 22 1237 56 846 4 675 38 670 90 533 17 544 29 557
2950 0.13448620041212891 1.2480974378824568 3.0094155229013451 254 250 253 0.17272373671016442 35 821 59 805 37 741 100 770 85 1297 26 1187
13223 -0.48809374155283147 -0.11715700645935745 2.8710610083407158 155 145 75 0.18898142020775635 41 1327 9 1105 94 1052
2949 -1.0270299156584328 0.5548870378684162 3.5898533503690748 203 190 184 1.0972828640956716 77 1443 59 768 37 1368 82 1917 85 1347 61 1898
13222 -0.4369601138737812 -0.02815694455457023 2.7785785862128916 60 96 39 0.38613599572684376 31 1343 9 1094 94 1153 30 1040 36 1023
2948 -0.2537354789919361 1.0737345938603682 2.8047313939604788 81 138 68 0.10157728813013711 74 718 59 758 82 710 64 593 100 669 7 509 80 411 75 382
13220 -0.43779324845739914 0.18256176135465757 2.7354023854515166 56 99 41 0.16239343723007307 41 1291 9 1076 94 1014 51 966
2946 -0.39133027626381744 1.0339821115954266 2.8045692021877588 88 150 73 0.05550187785957969 34 731 59 755
2945 -0.010615333299490635 1.1306093949855438 2.8102093191241009 74 132 63 0.038598314818158015 77 699 59 748
13218 -0.4330360143797764 0.65169927626223956 2.7121901542348241 241 229 146 0.044600382346036541 35 2007 9 1044
2944 -0.010407231935607211 1.130211930472637 2.811369545123918 74 132 63 0.03365691060780443 74 765 59 747
2943 -0.72572597544768247 0.84049325658829066 2.8342782246368943 96 159 75 0.1264902764148636 77 795 59 729 37 681 85 663 61 769
2942 0.22861869991891229 1.1307453814265997 2.8464636130488521 97 156 82 0.12232832825948321 34 757 59 724 78 270 51 149
13215 0.39395470341946931 0.15570498913396108 1.363215137077572 0 0 0 2.7583133631741799 62 2125 63 2331
2941 -0.082874100574963958 1.0226732039296011 2.7727287213038427 84 124 68 0.24341906316437775 62 642 59 719
13214 -0.83644614813366958 0.20760875682781274 3.0147700753616338 69 45 21 0.4788136496210163 41 1164 9 975 96 1287 94 1065 22 1249 99 955 56 780
2938 -0.95648382053459147 0.64707464137543846 3.0000327170626124 211 209 219 0.53180602656304754 35 593 59 694 37 674 85 1748 60 1964
2935 -0.3508984872987112 0.8816773851062657 2.7437000628250061 67 120 64 0.14598635562124357 16 595 59 670 61 602
13208 -0.14369015251307204 0.93281276888278486 2.7414803432197576 0 0 0 0.25340492821225302 74 1672 82 1780
2934 -0.35064983647357445 0.88205774561787187 2.742709188907992 67 120 64 0.24419977907981344 16 594 59 669 37 626 100 576
13207 -0.37698822113603014 -0.038324349634307746 2.7785790931041072 56 99 37 0.30853092514470881 41 1088 9 907 94 865 36 811
2933 -0.37269392278761121 0.88126353945825375 2.7469635370970207 69 120 64 0.28065685844286681 95 669 59 667 63 585 82 700
2931 0.028129429718414131 0.8947499230161654 2.7395251377040046 240 224 141 0.29737122757073753 62 627 59 614
13204 -0.57721233909874536 0.54800827651977846 2.7257961855139992 99 160 71 0.081661856989209108 41 1055 9 865
2929 -0.61443423268560571 0.64038799716648986 2.7416081447897422 238 217 127 0.13565483422845015 95 568 59 601 61 663
2924 0.15858077158058106 0.73534416296251881 2.7406784286526422 65 108 50 0.059973739279730751 77 506 59 555
2923 -0.044366752119776413 0.72638681592728771 2.7139103933738982 245 224 135 0.051944543096575285 95 622 59 550
13196 -0.27234571873853242 0.88904208378474037 2.740443541322195 218 237 150 0.42700747930348515 41 1251 9 796
2920 0.095609594619194577 0.7115798192275139 2.7293744783530332 227 212 125 0.15617948936706186 77 502 59 527 37 501 49 315
13193 1.5039973389203123 2.2731459063717883 4.6669226637239598 228 229 149 1.0398721955677417 41 993 9 781
2918 0.070141995221985443 -0.35735352648295682 4.212308537491432 87 131 68 0.77163201461308939 34 383 59 515
13191 -0.99455393525555147 0.5551280775839319 3.5949489212418499 198 175 146 0.14306745776246732 33 1377 9 740 94 723
2917 -0.30002759697237946 0.57530532086689001 2.6964303477372482 89 130 67 0.16804098216069102 77 557 59 511 63 514 8 204
13190 -0.88002677657050687 0.23476078354370405 3.0873017839103221 192 167 132 0.16638361157436032 52 1059 9 738
2916 -0.36600713297847248 0.56374392283307595 2.6988371547271037 76 125 64 0.14552344577364476 16 442 59 506 8 209 31 147
13189 -0.73551615985222518 0.011794647276951011 2.8516738651946691 60 108 42 0.42784534038015021 41 501 9 722
2915 -0.66465978865338871 0.43846785596034388 2.7417577831593003 91 148 69 0.070834894663087747 35 452 59 501 37 509
13188 -0.6125145940972242 -0.01305720971940349 2.869124500761814 74 132 51 0.34312051561555545 19 471 9 715
2914 -0.66690243935914162 0.38464569761330175 2.7471491419828986 240 225 132 0.063034159323148084 35 412 59 498 37 478
13187 -0.44545640466735387 -0.14163732410094304 2.8369270941185212 38 58 21 0.31330044337554719 41 440 9 713 94 312 99 493 56 439 4 391 38 386 25 349 90 307 17 307
2913 0.21619817336794964 -0.33394319925004462 4.1645456892096888 93 136 74 1.0273365993229806 34 384 59 485
13186 -0.43751220064145435 -0.1560622773418493 2.8520800660381909 35 59 21 0.41976955353812606 19 1177 9 712 94 894 96 980 22 677 13 244 4 559 38 509 81 404 90 453 17 309 29 362
2912 -0.27563431649291792 0.37167982060049087 2.6999830098966546 83 137 64 0.14157777903843569 35 421 59 461 55 497
2910 0.33612675412109755 0.72158264808175654 2.2827223083149586 148 117 71 0.29643640726182729 34 506 59 420 63 855 33 668
13183 -0.20383475762045145 0.96097265209903304 2.75231234893177 0 0 0 0.15339136907089068 61 1258 82 1301
2909 0.46254829243024087 0.20652522530416279 2.8284988010992547 80 125 50 0.15702419750025279 77 1598 59 399 37 390
2907 0.28985417637157096 0.13311762606473948 2.6235177757746411 74 77 38 0.38482118392946402 35 337 59 355 37 349 100 1040
13180 -0.12975323690579202 0.15035945694582373 3.1427497400848083 69 103 44 0.48158970324460482 16 301 9 663
2906 -0.59880880853446894 0.14669234921466398 2.3130990812726382 132 117 98 0.19519700072525453 35 250 59 337 37 360 85 364
2905 0.43462370075560625 0.18390322111923796 2.5400603186462067 147 155 171 0.91054707649912769 95 335 59 331
2903 -0.11689832057230375 -0.10264142212792475 2.6198408124256036 92 86 45 0.34964605965302148 35 252 59 320 37 990 100 335 82 1098 85 349 43 394 61 1081 76 1042 64 297 60 1001 26 964 20 946 27 872 7 782
13176 -0.73006028206164153 0.58190587816577144 2.7555907734727323 104 172 75 0.063379788498787809 33 971 9 643
2902 -0.35279792050191106 -0.23206842600248245 2.746113526435483 101 84 51 0.26005992037849757 35 228 59 318 37 335
2901 0.43423857347981759 0.1984293782666276 2.4029857474327714 67 133 77 0.07345256392912769 35 317 59 309 37 311
2900 0.067692130997234506 -0.020664356701841771 2.5340636026632923 151 152 165 0.26087680025893295 77 285 59 303 82 296 85 330 76 267
13173 -0.61430360582584242 0.4991453409129879 2.7276795352141856 93 155 68 0.51391097682879061 31 983 9 630
2899 -0.32492375057281642 -0.21627402323796485 2.6314618972089177 89 73 40 0.80527039325134842 2 78 59 300 37 984 100 998 54 159 62 48 85 1546 64 1303
2898 0.50824569104626682 0.30365961352005399 2.2696695533292957 90 76 36 0.41952088917775548 59 298 44 839 30 782 49 803 54 1385 61 193 62 1404 31 1170 51 706 78 682
2895 0.54060581512186956 0.19245809017413415 2.1550569726848718 108 96 68 0.21761514508447613 77 198 59 252 37 232 64 241 100 940 7 204 80 146
2894 0.47820189505770117 0.16840169813582453 2.1465110837142509 94 162 89 0.11767540473224086 35 999 59 248 83 829
13167 -0.55049015265985801 -0.11877999504682896 2.2805323770651431 126 129 63 1.0528236926169428 41 294 9 615 94 544 22 842 38 264
2893 0.035650505588610895 0.0017119827571264418 2.2079541823856563 64 127 70 0.16834624127280695 35 193 59 240
13166 -0.67795638147982928 0.10138619129223304 2.3072181903216866 102 74 44 0.29829389485833963 41 746 9 606 94 803
2892 -0.37990568046434925 -0.14854147753502833 2.2612342528047069 221 207 206 0.28672774878633445 34 163 59 234 54 117 98 107 31 440 62 45 24 61 78 106
2890 0.055301909126593184 -0.0027638755018395437 2.1165052015720849 64 126 68 0.00032263516495540642 35 170 59 221
13163 0.90719413011427685 1.0035041041553734 3.8880822484680095 77 112 53 2.7477600617063387 19 838 9 561
2889 0.42309721447672688 0.15188195179258418 2.0433925271947952 70 131 71 0.027383361974014492 35 217 59 209
2888 0.37571428158900083 0.14360910246425296 2.0266957254333526 68 134 74 0.12702179919039006 34 216 77 170 59 207 100 191 82 174
2887 -0.18980389449339155 -0.17131534784048424 2.1447368674050247 83 137 76 0.26287269195791996 77 229 59 198
2884 0.18184650289643348 0.019922999169115153 1.8739815893204859 59 117 63 0.057532254520650791 35 123 59 154
2883 0.57521568175479709 0.14550821806128345 1.8368378684427622 226 230 245 0.10537062230663341 74 196 59 142
2882 0.54179195189869322 0.10866564601778667 1.8449551214465407 152 154 169 0.26783570250484962 34 155 59 140 100 134 82 907 85 114 64 110
2879 0.13271294261466868 -0.016685602912798136 1.8603877498909887 60 118 64 0.20874696823484795 34 120 59 124 63 126
13152 -0.19510014577514351 1.0292576796257173 2.7773422345843661 231 244 168 0.2276381715788359 41 994 9 504 94 474
2877 0.5738719992295972 0.10456882058022007 1.8059530903746133 229 234 249 1.9299963138210086 34 159 77 75 59 114 63 6
13150 -0.14499008012729811 -0.21878625843334953 1.8773458037059401 94 145 81 0.65972829487647699 41 944 9 473 94 434
2876 0.39804727254446853 0.057789005593577428 1.7844791722867079 198 194 142 0.21487179909105875 74 153 59 104 37 104 100 106
13149 -0.38690027937802557 -0.32766616690728162 3.1677558000034685 180 156 123 0.17327911006939969 41 896 9 430 94 720
2875 0.092846096441901907 -0.08049499250661761 1.7842743777561176 60 114 60 0.065410080477657978 77 116 59 94
13148 -0.8771681397272878 0.25887563102835714 3.0756874630542592 191 165 125 0.17441660928477021 9 421 94 381 19 547
2874 -0.085544147480863364 -0.16602395853735311 1.851113766989898 165 164 112 0.10645221801222915 35 58 59 91 100 79
13147 -0.81852449481804412 0.18040805240110269 3.0246102390020804 231 209 160 0.26474095460132735 33 626 9 416 56 669
2873 0.43598288742856167 0.047131542757393445 1.6929526083250779 199 200 211 0.69412151106662368 35 81 77 44 59 76
13146 -0.64632081400035502 0.012243925767887279 3.0068981166420192 241 221 171 0.023852322747431834 19 515 9 409
2872 0.070405128860794017 -0.10359328324931454 1.7568368529395653 66 116 63 0.21406045739493615 35 61 59 68 100 67 82 97 49 123 43 96 64 69
13145 -0.34308721798959901 -0.31522991763530933 2.9671750028393209 168 129 76 0.21244339904315093 41 469 9 399 36 372
2870 0.15423955394383324 -0.097890162844201142 1.6933661949971439 50 102 58 0.16217391159713307 34 62 95 87 59 47 63 90 49 88 43 67 61 53 76 48
2869 0.10754072320088816 -0.1121623943844363 1.704119073995368 60 115 62 0.1470038588979975 35 48 59 45
13142 -0.37769199301124656 -0.28993477040989868 2.8323367871167529 100 76 51 0.82211141238940488 41 856 9 361 94 662 96 282 22 281 99 829 56 449 4 199 38 610 81 489
2867 -0.0079283413217892777 -0.21984667500328034 1.6301862835084195 118 106 94 0.20009111828702938 77 54 59 15 37 20
13140 -0.83409270588125173 0.24381277925074255 2.7153362607316045 182 158 123 0.43305508448979535 41 454 9 339 22 919 99 664
2866 0.051304092899762767 0.51628808207570898 4.6816974550754056 134 163 91 3.6198583128633546 74 1270 77 1869
13139 -0.64319853599344567 0.1273673096054164 2.7713842111694946 65 86 38 0.11838773661266977 33 556 9 334 36 308
2865 0.1316296823582695 0.56739656256296711 2.7260533226357548 45 82 40 0.27581394736683368 95 1480 2 1396 62 1438 24 1310 77 1708 74 1910 95 1802 2 1646 34 1973 35 2000 63 1384 54 1300 82 1676 55 1482 49 1421 43 1036 98 1135 8 1089 31 1077 31 1315 19 212 44 830 30 890 78 854 51 1010 50 769 36 702 9 516
2864 -0.0076325325131657617 -0.12930468124987465 1.8208490427154462 70 137 72 1.2866285536528437 74 2383 34 2462 35 2476 77 2651 16 2130 95 2271 2 2044 59 2542 37 2547 100 2426 63 2270 85 2484 55 2403 49 2314 76 2443 33 1885 65 2208
2863 0.0014432423891852003 0.46037874768211401 2.7062247974954734 56 92 47 0.61472378760431834 16 1986 95 2107 24 1794 77 2287 74 2082 34 2174 35 2169 63 2074 54 1763 55 2191 43 2105 8 1535 30 1074 50 955 83 1485 36 887
2862 0.15519115049745238 0.51963184267272522 2.7338591206633698 50 97 48 0.48127823749503557 95 1801 2 1645 62 1667 24 1554 77 2071 74 2090 34 2180 35 2177 63 1715 54 1535 55 1834 43 1536 8 1388 31 1324 83 1647 33 1129 41 647 44 1061 9 792 94 484 30 898 78 1045 51 1012 50 947
2861 -0.89303702135474528 0.39044177760586618 2.846490934507155 57 99 42 0.31532706146528583 2 846 62 795 24 746 77 1352 16 335 74 366 59 530 35 1170
13134 -0.38731374000192492 -0.050203425583653559 2.7810769790841059 154 146 85 0.2652118456969092 41 403 9 328 36 322 4 136
13133 0.63353022371694834 -0.66635926245290555 2.4746771451314098 0 0 0 2.4510411225907704 60 191 82 98
2858 0.15418346397383734 -0.097967951680843574 1.693694261989507 64 120 66 0.24178077927745137 16 738 2 743 34 63 62 749 77 881 74 58 95 88 35 52 59 46 63 89 54 424 49 89 43 68 61 54 76 47 98 301
2857 0.19334011216880848 0.089053438588596892 2.7775852552353459 41 68 36 0.1771893341473634 16 254 62 267 24 312 77 345 2 268 35 354 63 223 54 446 54 447 62 266 98 368 33 255
13130 -0.82347702863085281 0.68621706647853387 2.8149585807245292 0 0 0 0.37012728439004977 76 1286 79 575 18 489
2856 -0.39467477171700699 0.51245041039476036 2.7045285773619248 66 114 56 0.66986459856915914 16 2065 74 2276 34 2359 77 2534 2 1962 95 2186 24 1850 37 2425 63 2220 62 1998 54 1797 55 2327 49 2240 98 1669 8 1702 31 1596 33 1813 52 1854 19 1661 88 1127
2855 -0.70130369180044705 0.71032731487716561 2.7823940590387877 174 187 110 1.4213881904761656 34 2514 77 2728 59 2598 37 2607 82 2690 85 2550 55 2458 49 2354 43 2538 61 2723 76 2485 33 1939 52 1985 41 1702
2854 0.27889153540064604 0.030897589191595888 1.8096691707722186 69 132 70 0.67687010575217166 35 2482 77 2649 59 2547 37 2550 100 2430 82 2621 85 2485 64 2207 60 2425
2853 0.017722667639934849 -0.19470043691881281 1.6992086317593942 49 97 53 1.1546509049493148 16 2109 77 2644 59 2537 37 2542 100 2372 63 2332 2 2105 54 1948 82 2617 85 2480 55 2402 49 2313 43 2483 61 2658 76 2441 8 1815 64 2154 60 2421 33 1915 79 2292 26 2271 20 2163 27 1979 7 1922 53 2092 93 2057 18 2009 80 1616 75 1543 52 1940 19 1762 41 1720
2852 0.41186349765655356 0.13466656965978741 2.0387392205054158 130 176 114 0.93748458274119872 35 2490 77 2606 59 2492 37 2500 85 2451 60 2331 79 2185 26 2283 20 2135 27 2023 64 2219
13125 -0.53102492008464686 0.92017319344936321 2.7916506693929826 0 0 0 0.15030653252785625 59 732 82 1376
2850 -0.23411199988528864 1.2002769017038097 3.1158216738526159 0 0 0 0.19822847445678773 34 2419 77 2600 83 1861
13123 0.042676385477708918 -0.030628454898032918 1.9950247634249001 0 0 0 0.16073400640386706 20 120 26 130 79 155 85 170 53 127 18 112 64 141 100 865
2849 -0.42243534592296433 0.45612814513806904 2.7096077556977103 199 191 113 0.028914938959902547 62 1995 77 2589
2847 -0.2585434211880665 1.094160377752851 2.8150011389299401 234 234 153 0.34462430041088427 35 2375 77 2554 37 2448 100 2309
2846 0.03815278829268709 1.1181162138497136 2.807909136056812 81 140 64 0.33782663981317756 34 2379 77 2551 59 2442 37 2447 100 2366 82 2500 85 2391
13119 -0.36305920395206037 -0.0029734778247459091 2.7655459478594575 179 158 98 0.06926057249856217 41 376 9 302
2844 -0.013669954737121797 0.95232194558780281 2.7551118771225198 132 150 87 1.0333809907371456 35 2369 77 2544 7 1848 31 1527
2843 -0.22473816238375832 0.65787603864758915 2.706231102891814 216 207 131 1.1035563011123937 62 1962 77 2538 59 2429 37 2432 63 2167 85 2302 43 2345
2842 0.059654948077137983 -0.010508883515226301 2.7610454218515503 146 161 83 0.93510806095628252 34 2342 77 2515 55 2260 49 2100
2840 -0.33925233098401908 1.0089550856942648 2.7898864453299046 241 231 147 0.60989274523301074 35 2313 77 2476 61 2467 64 2021
2839 -0.29830176497383781 0.95549300411327531 2.7624393952497392 229 222 144 0.34879426574443895 2 1844 34 2220 77 2473 59 2388 63 1998 82 2450 49 1986 61 2322 76 2087 7 1660
2838 0.015677085478816806 1.0469781528425379 2.7834584480539419 239 228 148 0.014148808529814821 35 2373 77 2464
2835 0.28964404643321362 0.25018931667622701 2.7811064631102926 138 145 88 0.55056149239436991 74 2270 77 2419 82 2402 55 2253 49 2169 43 2237
2833 -1.0671666362208034 0.59866953670099776 3.6308874555069086 210 206 212 0.77333959955556719 35 2040 77 2390 37 1850 85 1803 55 1756
2832 -0.46469857298039063 1.0418169463170688 2.8343126869560979 85 160 77 0.61463245121404098 77 2384 59 2133 37 2314 100 2155 82 2348 85 2229 61 2346 76 2106 43 2171 60 2132 79 1848 35 2053 64 1901 26 2018 65 1676 18 1574 20 1792 53 1410 93 1403 83 1263 7 1487 74 1961 75 1210 80 1291
2831 -0.51573633033451216 0.85607495619415652 2.7648630688581095 202 206 125 0.28006506191742808 34 2212 77 2365 61 2336
13104 -0.64359278564642086 0.035099085037223525 2.3100426806599641 180 157 125 0.45727316816773106 41 329 9 243 94 553
2830 -0.35493138489932113 0.94222114627515108 2.7641110842791181 68 124 60 0.13947820914556697 35 2208 77 2361
13103 -0.58489488992778083 -0.056858735359838493 2.3078579158584325 217 202 164 0.12752785352245946 41 322 9 238 94 171
2829 -0.14378582127202569 1.0514793119002055 2.7886065291632449 75 136 62 0.14398618300345675 74 2148 77 2355 82 2318
13102 -0.57724222028727823 -0.078289064284087592 2.269550083206572 149 132 71 1.1532294325803099 41 297 9 237 94 150 94 151
2826 -0.49219180381350258 0.58101293927721198 2.7192960657358474 205 198 118 0.18208416568761568 16 1710 95 1807 77 2334 49 2007 43 2157
13099 -0.64530852908267922 0.043124904604005122 2.2958203024297723 223 209 171 0.092762905756415395 41 303 9 218 4 27
2825 0.19617562952114237 1.0029580320182006 2.8194134202755738 179 181 122 0.64184691572797969 2 1859 77 2329 59 2286 100 2142 43 1540 98 1528 64 1896 83 1685 7 1679 80 1444 75 1375 46 1320 39 1320 78 1226 88 1157 69 939 11 1065 47 980
13098 -0.40346413925552205 -0.23775294877653833 2.2554977574059909 153 112 67 0.23269740734579614 41 265 9 203 94 139
2823 0.21458907961784504 0.93655794744572196 2.7758111718967817 224 210 208 1.0914030073130438 74 2141 77 2310 82 2276 55 2032 63 1940 49 1930 43 2098 61 2272 76 1840 49 1734 64 2017 60 2217 83 1544 33 1408 75 1228 46 744 39 392
13096 -0.45717483816695098 0.74402985435288982 2.7274820754544757 109 190 83 0.012150639532324335 7 355 9 178
2822 0.255436062314297 0.62716056792260677 2.7464810697977904 145 148 93 0.44688655970947999 34 2184 74 2213 77 2288 49 1730 43 1876 31 1461
2821 0.11874651830107154 0.035610485358635355 2.1296655367369954 72 145 80 0.15069360032034573 34 1868 77 2245
2818 -0.80207389509460125 0.81917150904726099 3.0965968098630037 0 0 0 0.46430139227568734 34 2042 77 2194
13091 -0.096264578481707525 0.53487137993169209 2.6979188401200758 79 137 66 0.10656665109554864 41 200 9 127 36 135 50 508
2817 -0.35115079340591465 1.1474029975743125 2.8527519029437554 132 167 133 2.034682865808215 34 1800 77 2192 83 1305
2816 -0.84241433695686818 0.73063163777799855 2.8344276850241621 193 200 109 0.83979489185135259 35 2012 77 2179 59 2288 37 2294 100 2129 82 2357 85 2214 43 2200 61 2372 76 2247 64 1873 60 2128 79 1860 53 1819 93 1909 18 1756 52 1700 19 1400
2815 -0.053469293853217567 1.1744479097018543 2.8481488485395392 185 186 104 0.5589636655662148 34 2070 77 2172 37 2132 59 1836 100 2167 61 1769
2814 -0.33724560529236464 0.93317541258824288 2.7532315955825371 70 120 60 0.079695849110867162 74 1947 77 2167
2813 -0.6893656891963601 0.68032860996290756 2.7621294939941787 118 150 82 0.16597690538639112 95 1818 77 2164 76 1935
13086 -0.086859916840597698 0.721241583847676 2.7087065079554842 255 255 170 0.1596679258450055 39 687 9 109
2812 -0.84565499568444602 0.53410150542337342 2.794285245195042 185 188 104 0.50516212125544235 34 1981 77 2163 59 2086 37 2078 63 2033 82 2340 85 1676 55 2137 49 2039 43 2194 61 2358 76 2122 60 1647 33 1681 65 1688 52 1698 19 1557
2811 0.16834846546688448 1.0927442663820626 2.8204782762566261 185 184 126 0.51927663288495096 24 1752 77 2141 100 1983 82 1758 85 1690 55 1506 30 643
13084 -0.043087826557354693 0.76918242720793351 2.7162662641362405 255 252 171 0.32753936077510054 39 690 9 94
2810 -0.10926171583256097 0.87751449449334329 2.7342344668851513 65 112 58 0.21984027477798671 35 2039 77 2140 37 2082 100 1937 44 779
2808 0.19868509601391945 0.74540690985998903 2.7497217391001616 185 174 99 0.47627298384670658 35 2019 77 2091 64 1417
2807 -0.32797415649442913 0.34115997266875292 2.7038728905060259 61 112 51 0.37457339306137433 16 1680 77 2085 55 1903 49 1813 43 1949 76 1873 8 1413 31 1295 33 1477 50 829 36 752 36 898 95 1427
13080 -0.12739128070826761 -0.10766558805483094 2.1345203682790652 0 0 0 0.16719696586547206 26 1370 79 1369 27 763 60 1417 93 827 18 761
2805 0.20741882249001201 0.10107137797567715 2.7760474828057742 64 113 58 0.31588041179418169 35 1940 77 2036 59 1986 82 2030 83 1467
2804 0.0099336189576969651 -0.22282608803104784 1.6939811656758217 50 95 52 0.89671161904291607 34 2085 77 1940 43 1395 49 846 52 62 19 50 96 24 22 15
13077 0.073905865921302105 0.49274066793720267 2.7180007345885273 43 72 37 0.11860729209571771 8 219 44 154 70 138 30 186
2803 0.31645489990272496 -0.045331867921964322 1.555244460910171 107 93 52 0.84354230250264373 34 1820 77 1936 59 1885 82 1432 43 793 33 1048
13076 0.47547803943113842 0.81075978076180655 3.3851134222232537 52 81 35 0.25812279180014031 76 1130 44 109
2802 -1.0774927196252055 0.56720036862460199 3.612500020995749 203 185 162 0.46271809831463134 77 1928 59 1850 37 1379
2801 -0.37239087647021013 1.0700517186857954 2.8270515280633783 198 204 133 0.44893871839720872 34 1788 77 1917 100 1706 82 1864 37 1824 64 1472 60 1177 7 1263 75 1015
2800 -0.3952547820010715 1.0827494842973002 2.8423263965004799 235 222 136 0.33298491105771283 35 1807 77 1915 61 1833 43 1685 76 1211
13073 -0.020118857664682552 0.26042887797810543 2.7174113000289681 57 108 49 0.16700174734393544 2 1585 63 1720 31 1340 44 1103 16 1361 95 1417 62 1307 24 1230 74 1512 35 1609 54 1253 98 1085 83 1192 78 834 51 1014
2799 -0.46288357014649056 1.0213920062400379 2.8205840396909294 95 167 81 0.20116432901030065 35 1787 77 1912
13072 0.29843680780091864 0.77471575475578069 2.3191721805285428 252 241 193 2.0105899736684227 8 79 31 233 16 567 74 588 95 599 34 535 62 635 54 535 44 446 98 837
2798 -0.54523888104382756 0.96333312638719759 2.8012321138642662 236 228 146 0.050723011537632132 95 1579 77 1907
13071 -0.37121150517116014 0.33149198926638512 2.7103555113142748 151 143 82 0.15310147895439949 2 297 31 256 44 243 95 408 54 146 8 311 98 143 30 174
2796 -0.80285684771851484 0.63745418290195288 2.7907792954454047 198 199 117 0.0035408605431816436 24 802 77 1886
2795 -0.80796604320457488 0.61913012091936448 2.7878012635815637 220 209 125 0.17758109637509381 34 1690 77 1885 59 1739 37 1735 82 2161 55 1742 43 2031 33 1334 52 1330 41 1101 49 1647
13068 0.038785600885278868 1.0646130382108265 2.7813579296595807 90 140 69 0.57690879311006948 2 1857 31 1417 62 1723 98 1356 24 1749 44 750 95 2052 78 991 70 290 30 637 51 957
2794 -0.23005597367465369 1.0362841918400156 2.7848762472641524 240 235 155 0.25985368455783853 74 1691 77 1872 59 1813 100 1693 85 1725 64 1458
13067 -0.18693347073219921 0.32384058340576644 2.704425454878967 63 108 51 0.19629417824469381 55 412 43 450 31 317 77 436 44 239 50 230 74 387 54 263 36 186 2 302 70 152
2792 -0.45646363676311624 0.86597746514486473 2.7533303914636038 176 189 111 0.20834228132094657 34 1747 77 1867
13065 -0.055891169200203074 0.2050302376755595 2.7271081173871146 58 100 45 0.47391680905297623 16 1656 95 1738 2 1574 34 1555 62 1591 98 1331 8 1440 44 1107 49 1459 33 1191 78 1024 51 1015
2791 0.078286838554052801 1.1959133472973353 2.8445248290573009 96 142 65 0.18878362067452792 95 1260 77 1861 82 1799
13064 0.033969053140970207 0.82010475125600946 2.7273147811669114 166 189 103 0.69007646737467376 7 902 80 787 44 478 83 976 39 711
2789 -0.23523510336419812 0.99230141506711478 2.7686609064232153 69 124 59 0.18975846661887641 34 1756 77 1856 59 1782 100 1673 85 1706 7 941
13062 -0.30229394631067508 0.54303444310252091 2.6962303731797013 39 66 34 0.15276163391536068 24 858 49 1100 31 685 33 868 44 568 8 747 34 1157 51 503
2788 -0.020077714116810887 1.0512568339280322 2.7771767204136735 68 118 56 0.0074555337839126556 35 1800 77 1845
13061 0.20293442218037336 1.1508172174738196 2.8501659208025911 108 145 62 0.6157188784738441 16 1552 34 2068 54 1327 62 1513 31 955 77 1825 63 1002 82 1271 85 1718 55 1015 61 1190 60 506 33 138 44 431 30 32 50 8
2786 -0.33046466074723407 0.77046839825693825 2.715712243409369 118 141 78 0.67184399337844725 16 1466 77 1818 54 1164 43 1182 31 960
13059 -0.47420920151283691 0.64129720821565395 2.7207206150434553 88 160 72 1.6604341522229986 31 1617 44 1382 78 1251 51 1237 36 1152
2784 0.26923832991010826 1.0768325830925469 2.8485005240335965 164 219 127 0.75549102927547929 2 1720 77 1803 63 1404 54 1339 8 1002
2781 -0.37171633098341683 0.65795237419093411 2.7052582655734105 61 108 56 0.085469176615084741 34 1670 77 1793
13054 -0.38564857884260023 0.59837740575171072 2.7070194644143997 0 0 0 0.66266480347703594 2 1906 61 2459 62 1911 63 2100 77 2454 95 2115 16 1996 54 1741 8 1613
2780 -0.79061413834285477 0.30449619398496114 2.6699615974815392 235 230 236 0.43745522113789925 62 780 77 1785 37 1653 63 1597 85 1616 98 13 8 353 31 652
13053 -0.13996412995643531 -0.15524626145393366 1.9904568376399863 0 0 0 0.21026416297384692 18 1667 20 1881 79 1930 53 1743 60 2008 65 1754 93 1713
2779 0.029772926202412425 0.85852555441979717 2.7393981311617042 73 118 63 0.21372422812229486 62 1472 77 1780 63 1449
13052 -0.14114681361418724 0.17872775314142328 2.7244476555465318 157 144 84 0.49605757948963863 49 1967 54 1649 95 1948 44 1222 43 2115 63 1952 98 1489 74 2049 8 1641 62 1893 16 1963 30 1090 78 1221 51 1137
2778 -0.19821536887770497 0.69498925508061626 2.7030834930454595 58 102 56 0.07073206223943411 62 1417 77 1777 55 1584 83 1238
2777 -0.31780199495496392 0.55085018853594114 2.6970233650379773 69 107 55 0.15749047880428299 34 1645 77 1775 63 1523 49 1521 33 1226 50 775
13050 0.27668616204711977 0.50555259191510649 2.7599980329573723 199 183 117 0.011299143964546839 63 1917 44 1183
2776 -0.42038208094605539 0.50145680877804599 2.7053746363998852 71 111 57 0.011270320297015152 74 1553 77 1772
2774 -0.56672022767801167 0.20968342681117352 2.7387370054333999 92 129 62 0.023337384358500371 24 1135 77 1728 37 1622
13046 -0.42540455399213289 0.066180448000642683 2.7530824059986827 50 87 38 0.063201581157063702 55 1636 44 1129
2772 0.23100971702965975 0.53541040667746875 2.7461874975605118 108 133 78 0.28706329781533763 34 1975 77 1691 59 1646 37 1648 82 1659 32 580 5 685
2771 0.10651338044547499 0.44637373002153713 2.7297932329637402 142 136 87 0.26446177839962842 62 1657 77 1689 59 1626 37 1633
2770 0.0028125572001998617 0.33895615073062524 2.7132210573574445 57 104 52 0.37609789335492255 34 1586 77 1669 55 1515
13043 -0.16888124295633922 0.18111243482770217 2.7267178226715267 49 82 36 0.56886441685303324 95 1737 44 1108
2769 0.39217446894087743 0.75855948389730254 2.2867076274125093 255 255 244 0.62948957770803271 34 1977 77 1659 59 2228 63 1307 2 1686 49 1346 43 1425 8 1024 54 1369 33 667
2768 0.30823541678098443 0.28140681673131929 2.7725423351237857 58 120 61 0.34444172602145207 95 1755 77 1641 55 1449 98 1393 31 1364
13041 -0.45173109030101932 0.66379165059325551 2.7195249297297437 0 0 0 0.41392483571150496 59 2078 63 1820
2766 -0.018072608899975643 0.07636333531561966 2.7463892906911105 61 119 54 0.3202856710758118 62 1785 77 1635 63 1718 54 1658 55 1851 49 1773 98 1508 8 1576 31 1496 33 1458
2765 0.45238978757852699 0.26125968329519672 2.8161309273806494 170 165 104 0.44475384117681183 95 1420 77 1601 63 1669 55 1406 49 1373
2764 -0.4123376330321642 -0.18046963962730705 2.2424705925754553 83 125 79 0.5586302047405225 2 1142 77 1572 63 1453 31 835 51 534
13037 -0.4340245427371256 0.70367390098613791 2.718558958239508 222 211 134 0.54050752918346456 31 1238 44 1051 36 876
13036 0.47904183226483532 -0.55126366931470472 2.7718274499948921 0 0 0 1.7889103263063011 60 1822 100 1472
2762 0.58609498824449291 -0.71935838177540545 3.5541108132190313 91 145 86 1.3372371581366524 74 1432 77 1543
2760 -0.11580751379393332 -0.27299223396935901 1.7677457015319198 48 98 53 0.12686361164724888 34 798 77 1483 59 850 82 1482 61 1499 76 825 60 821 52 658 19 608 43 1413
13033 -0.11190365744717601 0.069496141573372333 2.7499084080356901 56 85 38 0.29240206855373563 33 1232 44 975
2759 0.17153826798751312 -0.068995164909668422 1.7197926843526619 73 124 68 0.3298143303271508 16 1225 77 1477
2758 -0.088342262918257863 -0.264365002090589 1.6765239896336983 198 198 209 1.6053530511466423 34 1374 59 1403 82 1465 43 853 76 813 49 182 60 1315 55 141 63 166 79 1292 26 1298 20 1235 53 708 93 1190 18 1128
13031 -0.29941919358222441 0.15200205257787466 2.7325482338385343 176 156 96 0.20257038456851173 34 1550 55 1595 44 961 50 865
2757 0.38869663954277722 -0.0060768854723253921 1.7082786865235009 71 78 52 0.97603242476802177 74 859 77 1464 59 1895 37 1887 100 2038 82 2201 85 2256 43 1783 61 2390 64 1786 60 2159 7 1345 80 1182 75 1100
2756 0.35367025968878596 -0.01093535489446599 1.7063351660765984 154 158 119 0.27425628138882463 74 1387 77 1463 59 1420 37 1414 100 1785 82 1447 82 1931 85 1373 43 1785 61 1910 76 1729 64 1200 60 1310
13029 -0.43870543954227387 0.73903888647973337 2.7275318718762183 0 0 0 0.12541120283740639 16 1464 37 1723
2755 0.35665582194912043 -0.021922472799629483 1.597058090210572 204 207 219 0.30260944400168821 35 873 77 1457 59 1408 37 1405 100 1358 63 19 82 1437 85 811 64 1191 60 806 61 1461 20 772 7 647 80 570 75 521 46 23 39 501 69 370
13028 -0.59873794543473469 0.77256988568845375 2.7657281610390063 0 0 0 0.10966954238744946 49 1616 74 1625
2752 -0.30163274104461657 1.1042518878414618 2.8390159689011418 98 157 77 0.23579821457183991 34 1338 77 1423 100 1725 82 1840 61 1815 64 1111
2751 -0.92521456260865453 0.62121008414693235 2.8369026199816503 87 155 70 0.27316680024639117 34 577 77 1411 59 658 37 1262 100 1195 64 462
2748 -0.47180481996852641 0.83730872399105327 2.7506846154292637 73 122 63 0.16919159506524309 35 1316 95 1191 77 1378 37 1272 62 1013 82 1332
13021 -0.1834996466358933 0.30796767546979725 2.7044800213188078 53 87 39 0.08829622066874418 43 1592 49 1490 44 915 30 732
2747 -0.47169124653073874 0.83786089854719026 2.7489633393188515 73 122 63 0.11415708913845593 95 1192 77 1377
2745 -0.0022178334337277024 1.0320838836173964 2.7722424943761501 66 111 56 0.012868397517470398 35 1369 77 1346
13018 0.19434143179769778 0.34714391051721644 2.7434739742210894 41 80 40 0.03335520754118023 8 1151 44 885
2743 -0.40290140713752298 0.72241554638080108 2.7110929408052038 237 226 140 0.065646681557760433 95 1161 77 1333 63 576
13016 0.19213807933771951 0.44587537984835107 2.7438089634645082 89 105 64 0.17673867618399941 31 1110 44 860 50 785
2742 -0.39599144557859062 0.6610641858145675 2.7066907240952744 252 232 143 0.02870269918671043 34 1202 77 1317
2741 -0.21419692036767923 0.71692294834098924 2.7053600179423252 63 103 57 0.017558282845466677 74 1188 77 1300
2740 -0.74270665028561633 0.26988801656994182 2.6218781065279977 249 240 243 0.57840720262166079 16 893 77 1261 85 1084 26 990 37 450 20 1406 79 1053 27 302
2739 0.053468882625361196 0.81082931334606889 2.733263315131746 68 118 62 0.04794125253511395 34 1249 77 1254 37 1210
2737 -0.22417363263341883 0.47514505846892863 2.6937479459331057 65 111 56 0.24742339729348281 62 908 77 1232 59 465 85 455 55 1106 49 1073 31 700
13010 0.24677765990249192 0.5666910405464477 2.7496997749450087 182 170 111 0.10365091707417302 31 1094 44 829 88 812
2736 0.3081722668552983 0.77731735836197202 2.7861257567116655 44 78 35 0.63646527886084892 62 1095 77 1222 54 974 31 1059
2735 0.30351898815557171 0.75094800620344626 2.7687307720974754 155 150 101 0.27814845915196418 62 1477 77 1221 61 429
2734 -0.32390099731478866 0.30841500982792547 2.7124861182784223 70 113 53 0.36787559430830624 16 920 35 394 77 1209 59 447 82 498 43 1178 76 472
13007 -0.58256797505285529 0.77008546126167088 2.7585640447970547 222 214 137 0.15303700120450786 8 1048 44 810
2732 -0.20486245501692998 0.26290442752889376 2.7079940137863807 66 122 55 0.13120412511115348 16 1359 77 1153
13005 0.46443197180424467 0.60477082750076594 2.2390990370699857 198 242 162 0.5573345626030255 82 1032 44 773 66 316
2731 0.0028455741128221479 0.32126518652342129 2.7138521813729142 66 107 55 0.10175279186887337 16 944 77 1133
2730 -0.24688014890503565 -0.17821468903490509 2.8074478860909213 60 93 42 0.22921604005179866 35 279 77 1098 82 1128
13003 0.20861670499982068 1.0932634859586225 2.8291617820079984 173 218 127 0.48691465998760863 63 1729 44 746 50 712
2729 0.36692898172425997 0.22343000776641905 2.7901502429468144 92 132 67 0.42451215166596507 95 1014 77 1084 98 856 8 846
13002 0.37307685434774623 0.8178057384622669 2.2912444041134647 255 255 255 0.57743612850566417 54 1578 2 1696 16 1760 62 1720 44 743
2728 -0.2218533711810948 -0.15675732934221603 2.6767433949323416 0 1 0 0.024427043726043676 34 948 77 1069
2727 0.14588469353037065 0.059167573852433625 2.6449219234553745 62 51 31 0.47480675286209245 35 308 77 1052 59 1043 37 343 100 1035
13000 -0.22865826607896678 0.0158336399393872 2.7580653725436282 66 89 42 0.10652185616292449 16 211 63 403 44 700 55 440 43 445 49 473
2724 0.46797368971594755 0.42975462926264379 2.237018294895655 250 228 134 0.1584638859101308 34 1036 77 1027 59 332 63 796 49 811 31 839
12997 -0.063438382584302677 0.12171777192891037 2.7285739907445747 175 159 97 0.14439303822567742 54 824 44 670
2723 0.34857350853347591 0.17382418506462127 2.2882722879939434 137 162 110 0.19674612480179457 34 978 77 990 82 1549 61 1543
2722 0.2189678382150243 0.082147120861294817 2.0525411705786949 75 147 82 0.059555896955554424 34 925 77 964 59 933 55 866
12995 -0.025337592831955587 -0.033128031667588258 2.3468405250542612 0 0 0 0.11949049446374851 20 895 79 271
2718 0.52119616850157713 0.15678904283808587 2.0072247898383484 149 150 162 1.1228679836026978 62 339 77 934 54 606 82 136 98 529
2716 0.37377864236731312 0.051609849514235716 1.7871511292993716 68 112 55 0.31051753979026336 74 878 77 902 75 539
2715 0.19720878836227237 -0.15232683195716221 1.493570921675027 99 69 42 0.57472408018379095 74 1342 77 829 37 1
2713 -0.65043370463532824 0.8300878438062278 2.7964985341334674 94 167 79 0.19035593662268205 34 671 77 777 37 648 59 700 61 1379 65 539 79 577
2712 -0.16351750197501072 1.167091310745453 2.8433601741959604 85 138 68 0.56459879381186218 74 762 77 765 82 711 35 1389
2711 -0.21348271802102875 1.1329452686021462 2.8409250480802117 95 151 73 0.10411147972609355 35 791 77 762 37 707 85 673 83 544
2710 -0.19328286263527286 1.1322137328933379 2.8343548145826145 87 150 70 0.23374841542643382 74 747 77 761 100 712 80 432
2709 0.30609605125094413 -1.0197430867887509 9.9753592869346122 249 228 144 1.8197031810688247 2 311 77 745
12982 -0.15405735652680402 -0.19595778096499053 1.938899178691458 0 0 0 0.27085151811747143 19 637 52 699
2708 -0.66443740285791231 0.76134964273546257 2.7776652778400499 113 173 83 0.10462667405179209 35 636 77 744 64 468
2706 0.5102122090432023 -0.1355523904665478 7.3109996644874107 206 206 132 2.865769377360853 95 554 77 723
2705 -0.37680036865038641 0.89324309778419353 2.7510299128052282 206 206 132 0.022039043056235597 35 665 77 722
2702 -0.55455854800151294 0.7255450245098285 2.7463017363322839 79 127 65 0.13748548880060435 95 1156 77 687
2701 -0.61504164256845195 0.6835275329573578 2.7473020311865257 111 137 77 0.23445919197481169 24 263 77 685 43 694 35 561
2700 -0.098057942593860428 1.0155882440832709 2.7637555849410771 67 114 57 0.12610573812973888 74 722 77 669 85 589
2699 -0.11783422408746747 0.98706946574548482 2.7600806676979173 73 116 59 0.13001908460112188 74 704 77 668 37 634
2698 -0.24905147124658569 0.84013797616650066 2.7262018322774231 67 113 58 0.10170640164011384 2 561 77 662 63 529 82 634
12971 0.30858375586547965 0.77799988701347123 2.781208015054387 61 88 41 0.13496226989714119 55 950 44 491 50 76
2697 -0.82884939723095796 0.39211177546553089 2.824067622374411 76 114 58 0.16660273133418332 63 684 82 728 61 704 76 679 16 338 77 644 65 1079
12970 -0.017378285324243469 0.86082115737639164 2.7323765759477969 132 156 89 0.20266679555463191 39 708 44 479
12969 0.0252027243872169 0.86463838372775093 2.7371981579811719 82 142 63 0.085957478897177697 49 989 44 477
2695 0.016623518445020271 0.97952465380110243 2.7558884481076791 67 112 58 0.10435866258702037 34 718 77 634
12968 0.1695136561046949 0.81017717094852693 2.7490238785984573 208 197 120 0.20950280511857203 8 674 44 475 30 460 50 77 70 358
2694 -0.15679536099048358 0.89156540083882574 2.7350603213610891 71 115 61 0.15569776061258092 24 503 74 659 77 630 82 602 61 551
12967 0.16216759170939499 0.8301067919364522 2.7513260790061977 91 162 72 0.11429019598319989 8 1025 44 474 50 430
12966 0.16216759170939499 0.8301067919364522 2.7513260790061977 91 162 72 0.11429019598319989 8 1026 44 473 50 429
2692 -0.22721493465310702 0.82702987427088681 2.7218534565708636 72 117 62 0.12725960983696499 95 644 77 628 82 601 55 516
12965 -0.13190476417110972 1.0097768336091535 2.7673377467029745 121 197 96 0.1427182901180723 98 706 44 453
2691 -0.26803714229005543 0.80656881142700343 2.7226030664441625 74 120 62 0.18320790273931156 34 629 74 637 77 627 63 527
2690 -0.29049126324509006 0.75215683599830763 2.7082884658972164 187 181 110 0.11134275724413034 34 597 77 625 54 242
12963 -0.30037603495841358 -0.044995169755271937 2.7656818544768584 67 92 43 0.068174694662155588 54 185 44 401
2689 0.13390818510348093 1.0346525270415539 2.7981502586769333 67 115 63 0.26735298769582344 16 668 77 608 63 358 54 470 62 1116 55 322 49 289 98 343 98 799 8 634 31 636 44 22 33 155 30 397 66 29
12962 -0.45780472360211433 0.697293021876909 3.2726743484728416 0 0 0 2.0286230530230425 46 374 61 748
2688 0.023779961435790382 0.90779555228233388 2.744386992146147 71 114 60 0.099212126181872001 74 685 77 603
2685 -0.36571761466163211 0.56370572847109912 2.7017416488910624 62 107 55 0.13276932942180983 35 485 74 499 77 559 43 543
